# .PCD v0.7 - Point Cloud Data file format
VERSION 0.7
FIELDS x y z
SIZE 4 4 4
TYPE F F F
COUNT 1 1 1
WIDTH 1268
HEIGHT 1
VIEWPOINT 0 0 0 1 0 0 0
POINTS 1268
DATA ascii
0.017781459 -0.013558414 -0.022555649
-0.017268486 -0.010714152 -0.022084733
0.017880885 -0.010378517 -0.022834523
-0.017297331 -0.0072939857 -0.022341514
0.017884495 -0.0078874677 -0.022546638
-0.017320938 -0.0042331149 -0.022518478
0.017870409 -0.0045684199 -0.022394376
-0.017341811 -0.0016325825 -0.022676809
0.01785472 -0.0018007199 -0.022367071
-0.017385151 0.0013427485 -0.022796543
0.017824451 0.001586879 -0.022764964
-0.017440686 0.0045612669 -0.022625402
0.017794138 0.0043753255 -0.022144828
-0.017485967 0.0077139558 -0.022677029
0.017750679 0.0079964157 -0.022042323
-0.017514654 0.010754485 -0.022168515
0.017715175 0.010468975 -0.022662925
-0.017503906 0.013156507 -0.022331912
0.017615641 0.013755607 -0.022839639
-0.01642496 0.016230619 -0.022439094
-0.013806282 0.017440075 -0.022685166
-0.010371828 0.017617883 -0.022374092
-0.0073062624 0.017678216 -0.022822723
-0.0045117168 0.01772687 -0.022474013
-0.0016671219 0.017761059 -0.022637384
0.0016738687 0.017785629 -0.022582743
0.0046680598 0.017805533 -0.022180356
0.0077994824 0.017802851 -0.022504397
0.010500493 0.017780744 -0.022359084
0.013323608 0.017744027 -0.022749607
0.016476795 0.016559938 -0.02237815
-0.016192282 -0.016161425 -0.019092271
-0.013385142 -0.017327404 -0.019607013
-0.010644292 -0.017404962 -0.019667691
-0.0076611517 -0.017437831 -0.019473245
-0.0047541345 -0.017444143 -0.019413015
-0.00108482 -0.017435856 -0.019381782
0.0013810616 -0.017420638 -0.019609421
0.0043037739 -0.017384904 -0.019767819
0.0075163534 -0.017304532 -0.019432461
0.010373442 -0.017231354 -0.019512244
0.013416929 -0.017127989 -0.019410675
0.016235692 -0.016426936 -0.019478207
-0.017133098 -0.013690632 -0.01951009
0.017631995 -0.013485225 -0.019568551
-0.017265929 -0.01065404 -0.019610099
0.017257879 -0.01068582 -0.019186292
-0.017292444 -0.0078353491 -0.019337215
0.017707184 -0.0072457278 -0.019471822
-0.017317405 -0.0045920839 -0.019642014
0.017874636 -0.0045893928 -0.01946751
-0.01734321 -0.0014605514 -0.01948419
0.017843263 -0.001304938 -0.019650619
-0.017384216 0.0014261178 -0.019605152
0.017819762 0.0012763432 -0.01939434
-0.017433625 0.0044246046 -0.019423213
0.017786723 0.0049075093 -0.019900862
-0.017479807 0.0073398468 -0.019274853
0.017691938 0.0075680055 -0.019404517
-0.017516429 0.010723337 -0.01982771
0.017302059 0.010490891 -0.019670855
-0.017490277 0.013430189 -0.019472729
0.017204778 0.013280255 -0.019524159
-0.016309379 0.01632552 -0.019433491
-0.013365297 0.017059531 -0.019236868
-0.01053687 0.017122678 -0.019469347
-0.0073192185 0.017641608 -0.019308243
-0.0046056095 0.017725099 -0.01966488
-0.00165103 0.017755089 -0.019429624
0.0017325197 0.017783988 -0.01950169
0.0042004962 0.017801953 -0.01977561
0.0075340788 0.017642921 -0.019202055
0.010402922 0.01724731 -0.019442158
0.013363703 0.017469201 -0.01925412
0.016391855 0.016525326 -0.019353073
-0.016210211 -0.016166221 -0.016507411
-0.013852802 -0.0172926 -0.016352307
-0.010276235 -0.017400127 -0.016539635
-0.007651553 -0.017430434 -0.016799616
-0.0045268042 -0.017438997 -0.016440377
-0.0014458236 -0.017434644 -0.016822372
0.0014709118 -0.0174045 -0.016451852
0.0042353026 -0.017369626 -0.016840195
0.007578691 -0.017290127 -0.016363798
0.010596463 -0.017213466 -0.016445981
0.013568658 -0.017097142 -0.016414912
0.016432738 -0.016214455 -0.016603455
-0.017160131 -0.013572604 -0.016650891
0.01728167 -0.013412041 -0.01653368
-0.01726098 -0.010674855 -0.01655676
0.016763616 -0.010624813 -0.016465543
-0.017294705 -0.0072858143 -0.016608862
0.017247256 -0.0075706132 -0.016644953
-0.017315963 -0.0045720465 -0.016370732
0.017860522 -0.0042075636 -0.016839923
-0.017340528 -0.0015887483 -0.01691387
0.017836522 -0.0013268677 -0.016297916
-0.017380115 0.0014133322 -0.016558165
0.017812846 0.0013985266 -0.016644664
-0.017428143 0.0043992735 -0.016521318
0.017787836 0.0040691067 -0.01612266
-0.017476751 0.0073790047 -0.016613474
0.017632961 0.0073204148 -0.016530987
-0.017522562 0.010504079 -0.016316829
0.016664146 0.010585661 -0.016458407
-0.017473195 0.013569159 -0.016287871
0.016739683 0.013393653 -0.016736971
-0.016361382 0.01629963 -0.016703561
-0.013504557 0.016696937 -0.016529854
-0.010516185 0.016549336 -0.016547242
-0.0073042233 0.017580856 -0.016612217
-0.0045855734 0.017725199 -0.016021796
-0.0016281572 0.017758209 -0.016542623
0.0014957149 0.017790264 -0.016778935
0.0045888708 0.017803878 -0.016483486
0.0074300091 0.017330449 -0.016585501
0.010410198 0.016668534 -0.016649989
0.013374481 0.017192803 -0.016203552
0.016492151 0.016549898 -0.016477777
-0.016313685 -0.016066233 -0.013415727
-0.013789418 -0.017285509 -0.013451116
-0.010220093 -0.017396938 -0.013806446
-0.0070530567 -0.017427206 -0.013750054
-0.0043787854 -0.017434437 -0.013672139
-0.0017795796 -0.017433807 -0.013096163
0.0013959717 -0.017405618 -0.013596671
0.0048693256 -0.017348679 -0.013642222
0.0075649503 -0.017283279 -0.013727728
0.010523723 -0.01720917 -0.013168241
0.013065659 -0.017123044 -0.013283699
0.016328318 -0.016366219 -0.013479659
-0.017171983 -0.013383218 -0.013324995
0.017689053 -0.013401178 -0.013486682
-0.017259095 -0.010426118 -0.013303624
0.01762934 -0.010099816 -0.013416357
-0.017290054 -0.0071925097 -0.013503511
0.017701669 -0.0075671538 -0.01396497
-0.017314984 -0.0042429497 -0.013748328
0.01784396 -0.0044522886 -0.013736196
-0.017339712 -0.0015221623 -0.013575592
0.01783167 -0.0013438852 -0.013546435
-0.017377054 0.0012782469 -0.013355028
0.017804271 0.0017939408 -0.013286506
-0.017425558 0.0044423272 -0.013458245
0.017777158 0.0047119707 -0.013457983
-0.017474465 0.0075795944 -0.013241098
0.017744182 0.0071361288 -0.01329065
-0.017522737 0.010624061 -0.013575315
0.017372863 0.010424892 -0.01394057
-0.017459972 0.013563083 -0.013463776
0.01746648 0.013435887 -0.013353292
-0.016286317 0.016421985 -0.013807115
-0.013913348 0.017310835 -0.013496413
-0.010544689 0.017313836 -0.013591309
-0.0073589203 0.017668471 -0.013700761
-0.0044966293 0.017730098 -0.013634788
-0.001517852 0.017770354 -0.013761706
0.0015538313 0.017803472 -0.013609451
0.004583105 0.017803662 -0.013358603
0.0076232813 0.017649308 -0.013486885
0.010908679 0.017412091 -0.01351873
0.013350004 0.017561 -0.013826676
0.016522087 0.016538339 -0.013308991
-0.015994079 -0.016336003 -0.010534558
-0.013424633 -0.017320687 -0.010438914
-0.010403378 -0.017397221 -0.010445011
-0.0072163972 -0.017424559 -0.010524517
-0.0048581809 -0.017429994 -0.01049825
-0.0013574893 -0.017431388 -0.010661652
0.0015142483 -0.017406687 -0.010446068
0.0046526468 -0.017354107 -0.010533228
0.0076160193 -0.017281132 -0.01015768
0.010412009 -0.017210063 -0.010148775
0.013463835 -0.017093971 -0.010153784
0.016285632 -0.016374424 -0.010396041
-0.017159555 -0.013384456 -0.010107544
0.01772638 -0.013731746 -0.010578299
-0.017254921 -0.010573047 -0.010392973
0.017837133 -0.010516665 -0.010674293
-0.017283767 -0.0075281397 -0.010181327
0.01784361 -0.0075794444 -0.01057591
-0.017311336 -0.0044745845 -0.010331915
0.017833801 -0.004629299 -0.010710151
-0.017335055 -0.0019814975 -0.010461338
0.01782321 -0.0016179504 -0.010486915
-0.01738216 0.0014508859 -0.010507362
0.017804677 0.0012786597 -0.010425937
-0.017433908 0.0047828383 -0.010230103
0.01777566 0.0044624186 -0.010707702
-0.017476564 0.0076509994 -0.010756377
0.017734908 0.0074592242 -0.010407064
-0.017518489 0.01040527 -0.010421795
0.017669717 0.010804178 -0.010582999
-0.017498307 0.01331591 -0.010142833
0.017597467 0.013317371 -0.010256827
-0.016133126 0.016440699 -0.010048441
-0.013370405 0.017519716 -0.01022847
-0.010805604 0.01762653 -0.010417272
-0.007527364 0.017686464 -0.010925995
-0.0047333622 0.017728886 -0.010078913
-0.001539632 0.017776132 -0.010695385
0.001929238 0.017810652 -0.010394282
0.0042334218 0.017813142 -0.010185761
0.0074975756 0.01780436 -0.010634055
0.010567014 0.017787674 -0.010363541
0.013341966 0.017720012 -0.010551487
0.016609365 0.016440505 -0.010537416
-0.016183149 -0.016231094 -0.0074673463
-0.013580874 -0.017302213 -0.007492485
-0.010377277 -0.017408157 -0.0076268683
-0.0074016657 -0.017425152 -0.0073738825
-0.0045328587 -0.017427327 -0.0075923502
-0.0017442071 -0.017428407 -0.0072994516
0.0010228315 -0.017415203 -0.0074151065
0.0045579616 -0.017358819 -0.0075080395
0.0074591422 -0.017286401 -0.007553007
0.010175757 -0.017216682 -0.007256649
0.013487223 -0.017090239 -0.0074026077
0.016461492 -0.016233226 -0.0075049424
-0.017167995 -0.013321158 -0.0074394802
0.017762404 -0.013298339 -0.0075462218
-0.017255958 -0.010511349 -0.0076433383
0.017836412 -0.010438429 -0.0076492885
-0.01728175 -0.0077110096 -0.0072262697
0.017842568 -0.0076394863 -0.0075929854
-0.017310845 -0.0044964887 -0.0076916288
0.017829683 -0.0045580505 -0.0077018882
-0.017338118 -0.0017988941 -0.0070776981
0.017812623 -0.0014237238 -0.0076634926
-0.017382612 0.0012999614 -0.007139924
0.017797694 0.0014460863 -0.0076868166
-0.017431403 0.0044689449 -0.0077207098
0.017765447 0.0044919928 -0.0076449434
-0.01747974 0.0075760307 -0.0075510484
0.017712831 0.0075208079 -0.0075064311
-0.017524855 0.010582855 -0.007306613
0.017662236 0.010340384 -0.0073051294
-0.017501626 0.013396732 -0.0074079884
0.017576667 0.013616627 -0.0072814496
-0.016247813 0.016447062 -0.0074822996
-0.013346879 0.017511245 -0.0077045001
-0.010592394 0.017621923 -0.0076155765
-0.0078203008 0.017680783 -0.0073228767
-0.0043365918 0.017736962 -0.0074294289
-0.0015712706 0.01777355 -0.0075533162
0.0012639655 0.017795274 -0.0075521427
0.0045577553 0.017813824 -0.0072581908
0.0073927986 0.017813649 -0.0073982677
0.010417349 0.017782735 -0.00734655
0.013437595 0.017700955 -0.0073807552
0.016335852 0.016666152 -0.0075997673
-0.016165039 -0.016225783 -0.0043656374
-0.013136659 -0.017335214 -0.0044043781
-0.010309735 -0.017417621 -0.0044811266
-0.0070530567 -0.017425222 -0.0044211159
-0.004639267 -0.017427122 -0.004513409
-0.0012600637 -0.01743065 -0.0040977723
0.0013193797 -0.017413829 -0.0046542888
0.0045910343 -0.017359845 -0.0043574353
0.007315936 -0.017291445 -0.0046411091
0.010606324 -0.017205941 -0.0046367557
0.013591648 -0.017095868 -0.0045810496
0.016726177 -0.016045555 -0.0046638115
-0.017183011 -0.013429167 -0.0041729352
0.017768832 -0.013137314 -0.0046920297
-0.017257119 -0.010719405 -0.0046035326
0.017840451 -0.010441078 -0.0045960178
-0.017282998 -0.0077341427 -0.0043793824
0.017846644 -0.007373652 -0.0043541854
-0.017311545 -0.004432356 -0.0045590354
0.017838815 -0.0046012043 -0.0042589181
-0.017343866 -0.001405452 -0.0044022016
0.017815946 -0.0015858145 -0.004542789
-0.017390249 0.0016717402 -0.0046275994
0.017786004 0.0021247466 -0.0041900836
-0.017433228 0.0044193687 -0.0044580977
0.017756442 0.0045257304 -0.0046439795
-0.017479254 0.0073839244 -0.0046565342
0.017713824 0.0074802735 -0.0046500829
-0.017529512 0.010647535 -0.0041445866
0.017669512 0.010599888 -0.0047712112
-0.017515244 0.013121999 -0.0044621923
0.017560335 0.013561417 -0.004526535
-0.016319102 0.016424054 -0.0047597657
-0.013883277 0.017458657 -0.0046679047
-0.0104174 0.017615646 -0.0043821367
-0.0073451004 0.017684609 -0.0040900125
-0.0044707665 0.017734513 -0.0046248878
-0.0016963016 0.017764071 -0.004599622
0.0013180883 0.017781449 -0.0046295766
0.0043425676 0.017797304 -0.0038784829
0.007433685 0.017808402 -0.0046676537
0.01031822 0.01778768 -0.0048699332
0.013452858 0.017712193 -0.0043609072
0.016306516 0.016582068 -0.0045041628
-0.01629976 -0.016105443 -0.0014410282
-0.01372601 -0.017310139 -0.0015043931
-0.010584068 -0.017415892 -0.0016119881
-0.0073720561 -0.017429782 -0.0015102517
-0.004971392 -0.017435182 -0.0014438158
-0.001523787 -0.017435186 -0.0015846434
0.0014515222 -0.017413957 -0.001344108
0.0044228463 -0.017364765 -0.0018027051
0.0076780841 -0.01728324 -0.0014563999
0.01031274 -0.01721344 -0.0018388737
0.013332652 -0.017114138 -0.0015157056
0.016626356 -0.016090708 -0.0014570871
-0.017150827 -0.013817647 -0.0012243484
0.01775163 -0.013482688 -0.0014330841
-0.017269047 -0.010504969 -0.0015973359
0.017845422 -0.010353737 -0.0014043903
-0.017291259 -0.0074957269 -0.0016981226
0.017846409 -0.0073106438 -0.0013476508
-0.017316604 -0.0045096348 -0.00093230611
0.017831171 -0.0042834529 -0.0013366871
-0.017345967 -0.0015401115 -0.0015520828
0.017811442 -0.0015546643 -0.0015451956
-0.017389286 0.0013369876 -0.0014433468
0.017787348 0.0013415141 -0.0015654319
-0.017442301 0.0047773141 -0.0014682588
0.017755199 0.004573544 -0.0017761048
-0.017485902 0.0075566084 -0.0015648474
0.017722638 0.0071566445 -0.0014295031
-0.017526602 0.010475622 -0.0017284038
0.01768652 0.0098396605 -0.0014243295
-0.017466156 0.013797986 -0.0016591056
0.017567936 0.013492408 -0.0012774257
-0.016155258 0.016499875 -0.0017099807
-0.013418226 0.017504852 -0.0013872857
-0.010550356 0.017605398 -0.0015176103
-0.0073100878 0.017681593 -0.0015155788
-0.0045413557 0.017730812 -0.0014803479
-0.0016182057 0.017763851 -0.0014362116
0.0015035312 0.017775221 -0.0012958446
0.0044259983 0.017788092 -0.0016724007
0.0075728614 0.017795796 -0.0011908638
0.010220791 0.017776672 -0.0016253393
0.013578555 0.017696651 -0.0013511374
0.016440555 0.016583418 -0.0013314671
-0.016099574 -0.016248511 0.0018593542
-0.013920279 -0.017280903 0.0016689086
-0.010275201 -0.017411392 0.001445002
-0.0075422712 -0.017426522 0.0015964863
-0.0043597422 -0.017438099 0.0016484244
-0.001744052 -0.017438577 0.0014886926
0.001372281 -0.017414887 0.0014475866
0.0045852521 -0.017363103 0.0014341434
0.0075252438 -0.017287746 0.0011971756
0.010131068 -0.017220445 0.0017221521
0.01341521 -0.017110884 0.0017964346
0.016539974 -0.01619876 0.0017616499
-0.017188046 -0.013546349 0.0016110674
0.017766271 -0.013236437 0.0014015372
-0.017285565 -0.01059564 0.0019982178
0.017840357 -0.010431275 0.0012598886
-0.017307991 -0.0076545128 0.0016011806
0.017837493 -0.007392087 0.0012965954
-0.017334584 -0.004496125 0.0017225787
0.017824898 -0.0045058155 0.0013189114
-0.017367486 -0.0016478534 0.0016246568
0.017800845 -0.0012299486 0.0013389559
-0.017406391 0.0013732803 0.0012903806
0.017779469 0.0013228762 0.0015865875
-0.017452898 0.0045176228 0.0017241084
0.017750423 0.0045343018 0.0019881197
-0.017488433 0.0072767655 0.0014128777
0.017713768 0.0074403873 0.0016582264
-0.017524514 0.01033509 0.0017455077
0.017650932 0.010758734 0.0014888038
-0.017484004 0.01344668 0.0015484708
0.017542208 0.013699678 0.0013772232
-0.016305694 0.016339134 0.0010414982
-0.013329844 0.017483473 0.0014786331
-0.010692237 0.017595783 0.0016697708
-0.0076270821 0.017669259 0.0014640626
-0.0043061697 0.017727589 0.0013356482
-0.0012566221 0.017765377 0.00096952263
0.0016573155 0.017776934 0.0015079761
0.0045430446 0.017785005 0.0014187777
0.0073561855 0.017787725 0.0018232611
0.010751856 0.017766472 0.0018176479
0.013552694 0.017700406 0.0013740365
0.016438339 0.016579185 0.0012952752
-0.016198933 -0.016237494 0.0048557729
-0.013375173 -0.017303269 0.0043643662
-0.010558963 -0.017393537 0.0045497757
-0.0072909542 -0.017424161 0.0047426368
-0.0043714247 -0.017438313 0.0044956175
-0.0016263117 -0.017434588 0.0045120176
0.0013746014 -0.017412821 0.0047605531
0.0044460278 -0.017367564 0.0043225996
0.0075304811 -0.017290285 0.0046536578
0.010660544 -0.017210597 0.0044279541
0.013556159 -0.017103184 0.0044619679
0.016418831 -0.016290562 0.0043991976
-0.017224226 -0.013272536 0.0045453785
0.017722629 -0.013585498 0.004506913
-0.017295867 -0.010630951 0.0044762446
0.017828658 -0.010132789 0.0044369176
-0.017323513 -0.0076875812 0.0047897776
0.017826783 -0.0073193614 0.0048248228
-0.017353497 -0.0043518152 0.0047400394
0.017820463 -0.0044473186 0.0046031028
-0.017388625 -0.0012190306 0.0044857357
0.017798867 -0.0013601729 0.0046562934
-0.017423175 0.0016527773 0.0042658783
0.017774608 0.0013651617 0.0045115161
-0.01745533 0.0045025842 0.0045451629
0.017748987 0.004295026 0.0044278111
-0.017499767 0.0077190753 0.0043569221
0.017703149 0.0075730542 0.0048140069
-0.017527683 0.01034931 0.0046072723
0.017650019 0.010196321 0.0041746697
-0.017483357 0.013538949 0.0044652843
0.017573506 0.01311658 0.004337112
-0.0159357 0.01669321 0.004485264
-0.013710774 0.0174598 0.0041944967
-0.010430929 0.01760363 0.0044779456
-0.0080848392 0.017654652 0.0041831336
-0.0044490453 0.017709911 0.004192268
-0.0016480372 0.017748678 0.0044383858
0.0013355084 0.017771648 0.004213965
0.0046051457 0.017777866 0.0045913109
0.0073377164 0.017775083 0.0051454408
0.010682037 0.017765252 0.004342956
0.013833728 0.017691929 0.0044891951
0.01638755 0.016564738 0.0046755793
-0.016063048 -0.016334832 0.0074690268
-0.013155268 -0.017325221 0.007859068
-0.010352668 -0.017397022 0.007693754
-0.0074819787 -0.017424176 0.0073154173
-0.0044159191 -0.017439786 0.0076792976
-0.0012835693 -0.017427374 0.0075167734
0.0012134013 -0.017410286 0.0073993914
0.0043091788 -0.017370462 0.0075103198
0.0074543911 -0.017291788 0.0077469242
0.010101422 -0.017224247 0.0074303476
0.013232722 -0.017118055 0.0075579686
0.016525539 -0.016086122 0.0075187795
-0.017232329 -0.013091566 0.007469696
0.017759638 -0.013147764 0.0077186506
-0.017302331 -0.01032771 0.0073449765
0.017832749 -0.010109739 0.0072276592
-0.017325236 -0.0074924864 0.0073147565
0.017836716 -0.0073285252 0.0075503932
-0.01734942 -0.0045269569 0.0075934869
0.017832423 -0.0045179562 0.00763945
-0.01737733 -0.0017827245 0.0075671398
0.017806591 -0.0011378918 0.0072887028
-0.017414741 0.0016336351 0.0077094659
0.017776506 0.0021718771 0.0073876265
-0.017448066 0.0044409004 0.0073747574
0.017753087 0.0046115662 0.0075612697
-0.017498635 0.0073980526 0.0075766207
0.017711453 0.0075010783 0.0072957999
-0.017529525 0.010403815 0.007619245
0.017651875 0.01065668 0.0074683381
-0.01747334 0.013486648 0.0079339575
0.017575746 0.013442452 0.007140785
-0.016405087 0.016273707 0.0073657343
-0.013519196 0.017447347 0.0074497485
-0.010578587 0.017588308 0.0077478257
-0.0074643749 0.017654203 0.0078709526
-0.0045337165 0.017697688 0.0073353737
-0.0016294643 0.017731225 0.0071900296
0.0011832186 0.017758487 0.0075423638
0.0045409128 0.017769264 0.0071465559
0.0075833211 0.017763393 0.0075905868
0.010567669 0.017751383 0.0079745008
0.013578464 0.017697737 0.0073316442
0.016575225 0.016468471 0.0076690703
-0.016196746 -0.016148215 0.010311933
-0.013421632 -0.017320773 0.010412071
-0.010542924 -0.017399637 0.010409812
-0.007735963 -0.017425783 0.010376016
-0.0044555366 -0.017440133 0.010487027
-0.0017403715 -0.01742612 0.010292809
0.0012273826 -0.017406505 0.010147926
0.0043890658 -0.017366569 0.010427669
0.0073687644 -0.017292563 0.010753265
0.010279802 -0.017217234 0.010817004
0.013253624 -0.017132223 0.010082074
0.016600227 -0.016040824 0.010606454
-0.017162913 -0.013930684 0.010812889
0.017720357 -0.013652055 0.010148239
-0.017290628 -0.010691961 0.01082858
0.017847547 -0.010514956 0.010560515
-0.017320154 -0.0076083951 0.010671777
0.017850395 -0.0077227643 0.010357983
-0.017343771 -0.0047544269 0.010453995
0.017844187 -0.0043016607 0.01041383
-0.017371718 -0.0017993847 0.010440708
0.017821399 -0.0013748895 0.010473945
-0.017405283 0.0014173847 0.010432922
0.0177943 0.0014189291 0.010501399
-0.01743689 0.0040459624 0.010759701
0.017761424 0.0047194301 0.010600336
-0.017496612 0.0073950519 0.010515442
0.017720131 0.0078062979 0.010702452
-0.017536338 0.010767442 0.010579027
0.017667634 0.01074341 0.010431173
-0.017495718 0.013592582 0.010413731
0.017582735 0.01349642 0.010548305
-0.016288457 0.016403478 0.010385967
-0.013141356 0.01747527 0.010223445
-0.010611359 0.017577136 0.010639284
-0.0076556769 0.017642444 0.010369807
-0.0042640958 0.017690767 0.010530711
-0.0016354307 0.017721746 0.010219323
0.0015523228 0.017747706 0.010646581
0.0043328376 0.017756749 0.010445476
0.0075353887 0.01774882 0.010673319
0.010471145 0.017740801 0.010488754
0.013399539 0.017690875 0.010501048
0.016605137 0.016404035 0.010550539
-0.016293293 -0.016069721 0.013314705
-0.013283121 -0.01732876 0.013386225
-0.01051065 -0.017403465 0.01362315
-0.0075904485 -0.017429018 0.013005692
-0.0044122278 -0.017438242 0.013310025
-0.001431792 -0.017419778 0.013549005
0.0017378823 -0.0174003 0.013303292
0.0044766846 -0.017363816 0.013311108
0.0076156631 -0.01728618 0.013241872
0.010469422 -0.017210659 0.013722326
0.013631688 -0.017107448 0.013131131
0.016319135 -0.016315946 0.013540638
-0.017215205 -0.013310703 0.013363742
0.017764622 -0.013489121 0.013547525
-0.01729379 -0.010391206 0.013166734
0.017768214 -0.010544033 0.013673656
-0.017316619 -0.0076572881 0.012973192
0.017821161 -0.0075939517 0.013398497
-0.017344119 -0.0043133851 0.013596808
0.01785451 -0.0047907005 0.013484958
-0.017374629 -0.0012291499 0.013670586
0.017835459 -0.0016061569 0.013479663
-0.017397972 0.0011900156 0.013348062
0.017804401 0.0015208396 0.013410406
-0.017442506 0.0044349083 0.013774759
0.017775329 0.0044586957 0.013424938
-0.017490709 0.0073502855 0.013292514
0.017738713 0.0073987204 0.013622978
-0.017538086 0.010578775 0.013573806
0.01767005 0.010194499 0.013422433
-0.017488884 0.013425137 0.013389961
0.017557699 0.013497191 0.013204603
-0.016218582 0.016417425 0.013708886
-0.013587096 0.017380578 0.013460964
-0.010705813 0.017435919 0.013796406
-0.0072954772 0.017630968 0.013645977
-0.0046844548 0.017680813 0.013477203
-0.0016578555 0.017721092 0.013555721
0.0014177905 0.017742373 0.013364612
0.0044725249 0.017754445 0.013092662
0.0076210895 0.017726371 0.013283082
0.010497852 0.017646166 0.013632379
0.013660158 0.017668314 0.013485761
0.016367886 0.016641548 0.013382027
-0.016100926 -0.016347326 0.016233085
-0.01338565 -0.017336817 0.016362119
-0.010316544 -0.0174047 0.016705208
-0.0073978454 -0.017433036 0.016970886
-0.004642121 -0.017436614 0.016614001
-0.0014314824 -0.017417951 0.016503474
0.0013966858 -0.017401155 0.016687548
0.0043626344 -0.017364642 0.01603766
0.0076740044 -0.01728389 0.016750749
0.010546218 -0.017209031 0.016485544
0.013550724 -0.017104631 0.016409412
0.01660653 -0.016135085 0.016385399
-0.017217586 -0.013334282 0.016219966
0.017346449 -0.013067191 0.016525246
-0.01729662 -0.010469183 0.016337719
0.016849799 -0.010647067 0.016797693
-0.017319458 -0.0076753735 0.016600257
0.017371951 -0.007533486 0.016489899
-0.017342485 -0.0047767153 0.016632635
0.017869065 -0.0046168957 0.016412484
-0.017385533 -0.0014098427 0.016332844
0.017849008 -0.0013142374 0.016462844
-0.017425124 0.0015837636 0.016553039
0.017824201 0.0015389827 0.01661801
-0.017472109 0.0048928289 0.01674165
0.017800665 0.0044479193 0.016707553
-0.017513124 0.0075976211 0.016483868
0.017649656 0.0076316479 0.016198901
-0.017554017 0.010337172 0.016283939
0.016834827 0.010289405 0.016427003
-0.017480258 0.013579089 0.016531764
0.016754329 0.013527645 0.016707547
-0.016435089 0.016230458 0.016676469
-0.013581616 0.016742747 0.016566634
-0.010216959 0.016626658 0.016538166
-0.0077094156 0.017546592 0.015994223
-0.0046683517 0.017693706 0.016843894
-0.0014602493 0.017731639 0.016878834
0.0011451276 0.017745847 0.01640477
0.0044980654 0.017764546 0.016330434
0.0074770893 0.017447552 0.016517431
0.010521382 0.01672007 0.016747652
0.013531838 0.017356519 0.016133608
0.016467122 0.016613754 0.016501777
-0.016280213 -0.016193386 0.019572631
-0.01336062 -0.017335024 0.019514656
-0.010649998 -0.017399538 0.019673906
-0.0077021006 -0.017428841 0.019181356
-0.0043766503 -0.017435873 0.019448532
-0.0018279265 -0.01742322 0.01944707
0.0015363294 -0.017403992 0.019487131
0.0043057082 -0.017368779 0.019357266
0.0074069155 -0.017292051 0.019198336
0.010434876 -0.01721818 0.0199419
0.0134478 -0.017106256 0.01938289
0.016667794 -0.016126378 0.019440349
-0.017240485 -0.013439498 0.019626023
0.01741123 -0.013528895 0.019455049
-0.017306741 -0.010493219 0.019732848
0.01691458 -0.010423265 0.019599736
-0.017330002 -0.0072039478 0.019727679
0.017413246 -0.0077243401 0.019548234
-0.017348306 -0.0045630713 0.019301191
0.017878817 -0.004414205 0.019184077
-0.017385863 -0.0013669167 0.019345928
0.017855132 -0.0017432669 0.019452438
-0.017435277 0.001518288 0.019507214
0.017825354 0.0012410649 0.019510949
-0.01748346 0.0047327108 0.019718057
0.017801577 0.004449009 0.019017002
-0.017522484 0.0075233798 0.019470345
0.017687742 0.0074842772 0.019425018
-0.017557597 0.010275763 0.019875184
0.016877325 0.010429109 0.019643588
-0.017551443 0.013287234 0.01949065
0.016865982 0.013297661 0.019572148
-0.01605781 0.016554452 0.019347059
-0.013400897 0.01681431 0.019724088
-0.010238711 0.016771773 0.019613571
-0.0074157184 0.017601125 0.019777374
-0.0043468839 0.017709296 0.019606259
-0.0013548014 0.017738875 0.019302104
0.0014480958 0.017753089 0.019391727
0.0040853564 0.017764602 0.019335246
0.0076990128 0.017373137 0.019599773
0.010470049 0.016760441 0.019452263
0.013636522 0.017363759 0.019534448
0.016702805 0.016395859 0.01965595
-0.016274953 -0.01614983 0.022735575
-0.013462196 -0.017314557 0.022407018
-0.010545156 -0.017401138 0.022393182
-0.0073659788 -0.017425757 0.022110408
-0.0046933098 -0.017432727 0.022425072
-0.0014583778 -0.017423285 0.022527026
0.0016209304 -0.0174077 0.022356289
0.0044725649 -0.017368976 0.022351691
0.0073379464 -0.017301388 0.022502851
0.010764019 -0.017223196 0.022502987
0.013670054 -0.017116433 0.022740437
0.016325226 -0.01637602 0.02265664
-0.017219456 -0.013468632 0.022295833
0.017739508 -0.013942041 0.022648487
-0.017311344 -0.010311088 0.022153784
0.017853731 -0.010543328 0.022609195
-0.017333547 -0.0074401507 0.02261968
0.017894648 -0.0074496837 0.022756094
-0.01735732 -0.0042570895 0.022693742
0.017876031 -0.0044224239 0.022420896
-0.017378611 -0.0016654248 0.022677168
0.01784578 -0.0012227548 0.022385476
-0.017426249 0.0014796193 0.022811254
0.017819436 0.0014699907 0.022581309
-0.01746303 0.004047093 0.022796135
0.017788585 0.0046352907 0.022829367
-0.017504927 0.0072362274 0.022596726
0.017751629 0.0076506939 0.022455426
-0.017545208 0.010489707 0.022679133
0.017680993 0.010386851 0.022667427
-0.01750575 0.013500502 0.022664264
0.017567046 0.013561049 0.022604201
-0.016382873 0.016327085 0.022503931
-0.013366478 0.017473465 0.022544308
-0.010171496 0.017577831 0.022496413
-0.0076900092 0.017662337 0.0222487
-0.00476408 0.017707976 0.022136729
-0.001551459 0.017743379 0.022482783
0.0016021091 0.017757636 0.022411957
0.0046552601 0.017768899 0.022629175
0.0074800793 0.017759237 0.022502977
0.010178776 0.01768546 0.022295617
0.013298973 0.017696343 0.022467077
0.016784189 0.01620348 0.022585208
-0.016166812 -0.016247427 0.025637127
-0.013460227 -0.017321995 0.025681615
-0.010429447 -0.017401025 0.025985589
-0.0074575725 -0.017417321 0.025388053
-0.0042980826 -0.017433032 0.026060896
-0.0019742514 -0.017428389 0.025408974
0.0015938834 -0.017411718 0.025522631
0.0043777744 -0.017375004 0.025508052
0.0074034841 -0.017302837 0.025592538
0.010509904 -0.017226744 0.025767494
0.013807298 -0.017113343 0.02562633
0.016425617 -0.016260363 0.025258753
-0.017205354 -0.0134842 0.025693933
0.017792245 -0.01340729 0.025803875
-0.017297585 -0.010286288 0.025391784
0.017871529 -0.010641728 0.025679709
-0.017326256 -0.0073968084 0.025534179
0.017876284 -0.0077757663 0.0256726
-0.017349266 -0.005043413 0.025623936
0.017861465 -0.0044971011 0.025521366
-0.017385038 -0.0011532456 0.025241595
0.017838798 -0.0016896554 0.025416803
-0.017418833 0.0015605963 0.025486141
0.017810153 0.0013915866 0.025177607
-0.017454391 0.0043336558 0.025612695
0.017770773 0.0046206927 0.025907744
-0.017490886 0.0072951354 0.025729515
0.017737718 0.0071358732 0.025363849
-0.017534964 0.010758464 0.025457459
0.017687012 0.010797628 0.025544424
-0.017480066 0.013553837 0.025329649
0.017609477 0.013314201 0.025393263
-0.016496055 0.016102998 0.025745591
-0.013238125 0.017480306 0.025633702
-0.010576632 0.017603096 0.025401602
-0.0072217607 0.017666724 0.025272623
-0.0045279022 0.017703773 0.02549307
-0.001632257 0.017740723 0.025161942
0.0017092158 0.017766345 0.025397442
0.0044030915 0.01777331 0.025248313
0.0076067434 0.017769352 0.025578316
0.010382249 0.017761821 0.025461394
0.013451196 0.017714938 0.025880478
0.016539151 0.01645945 0.025410613
-0.016154254 -0.016255997 0.028696299
-0.013611672 -0.017318185 0.028546473
-0.010787155 -0.01740081 0.028302824
-0.0072417036 -0.017422456 0.028632447
-0.00483099 -0.017438116 0.028450549
-0.0013800299 -0.017432747 0.028563755
0.0015638332 -0.01741288 0.028786033
0.0046271579 -0.01736637 0.02824844
0.0073993206 -0.017301021 0.028294962
0.01054213 -0.017223414 0.028543621
0.013659645 -0.01710573 0.02828845
0.016428603 -0.016259294 0.028703511
-0.017207202 -0.013454204 0.028655926
0.017790416 -0.013439612 0.028835373
-0.017297821 -0.010307967 0.02864903
0.017865237 -0.010494914 0.028852293
-0.017329637 -0.007337952 0.028543103
0.017859206 -0.0072103916 0.028601849
-0.017359102 -0.004386446 0.028368318
0.017847516 -0.0044804015 0.028095707
-0.01738188 -0.0015958395 0.028378559
0.017828699 -0.001719167 0.028466539
-0.017420704 0.0018882417 0.028758194
0.017795952 0.0015419021 0.028621394
-0.017455647 0.0043415683 0.02856764
0.017768219 0.004323069 0.028368026
-0.017495465 0.0074406443 0.028734142
0.017729532 0.0073714852 0.028391564
-0.017533328 0.010432086 0.02892624
0.017680014 0.01019726 0.028642969
-0.017453251 0.013846529 0.028056704
0.017572189 0.013558498 0.028355177
-0.016211841 0.016341114 0.028858922
-0.013329598 0.017465686 0.028387647
-0.010605204 0.017594764 0.028259313
-0.0077070016 0.017654603 0.028486503
-0.0045405286 0.017696213 0.028382322
-0.0017826003 0.017730428 0.028551072
0.0013168327 0.017766763 0.028541449
0.0044040238 0.017776117 0.028068651
0.0076668574 0.017766597 0.028750077
0.010598008 0.017760349 0.02843542
0.013610057 0.017713912 0.028404217
0.016431203 0.016607275 0.02866268
-0.016142216 -0.016307952 0.031504247
-0.01331922 -0.017350631 0.031276625
-0.011035547 -0.017403951 0.031306647
-0.0077877869 -0.017426284 0.031575806
-0.004803462 -0.017445264 0.031591043
-0.0015828612 -0.017436136 0.031632077
0.0018113195 -0.017408079 0.031725053
0.0043381169 -0.01737 0.031516384
0.007631137 -0.017291306 0.031390738
0.010533763 -0.017223353 0.031217014
0.013506362 -0.017119892 0.031639766
0.016240334 -0.016343314 0.031280283
-0.017213918 -0.013367967 0.031459346
0.01777125 -0.01359757 0.031801216
-0.01731199 -0.010371261 0.031317342
0.017868154 -0.010329897 0.031313643
-0.017338779 -0.0075219008 0.031743173
0.017862748 -0.0078242356 0.031739332
-0.017357497 -0.0048304945 0.031466369
0.017849032 -0.0044342396 0.031467944
-0.017377991 -0.0018192211 0.031369034
0.017826412 -0.0012184903 0.031298548
-0.017414175 0.001716294 0.031341299
0.017801955 0.0011297786 0.031602483
-0.017456237 0.0042231474 0.031343013
0.017766712 0.0043954439 0.031430479
-0.017501688 0.0073082428 0.031508513
0.017733797 0.0071801273 0.031602036
-0.017538423 0.01039464 0.031231422
0.017676227 0.010324511 0.031266131
-0.017492922 0.013630123 0.03183997
0.017569879 0.013678551 0.031305261
-0.016353393 0.016174711 0.031362314
-0.013166838 0.017486693 0.031502739
-0.010284889 0.017597707 0.031457838
-0.0071776337 0.017656878 0.031507377
-0.0041606463 0.017694201 0.031633787
-0.0018730296 0.017722972 0.031595554
0.0013017546 0.017760055 0.031608697
0.0045867343 0.017762901 0.031955235
0.0074833874 0.01775508 0.031450462
0.010756204 0.017743316 0.03153896
0.01343493 0.017699458 0.031652901
0.016472422 0.016512077 0.031449657
-0.016139025 -0.016277453 0.034679662
-0.013856627 -0.017299606 0.034900751
-0.010367073 -0.01741063 0.034337997
-0.0076182033 -0.017424719 0.034729887
-0.0045759827 -0.01743998 0.03464422
-0.0017407449 -0.017436696 0.034597326
0.0016423089 -0.017406806 0.034077372
0.0043756873 -0.017366156 0.034390587
0.0072611165 -0.017297732 0.034421735
0.010376162 -0.017221428 0.034671776
0.013327992 -0.017118547 0.034732651
0.01661234 -0.016077509 0.034431834
-0.017206624 -0.013303436 0.034462038
0.017755706 -0.013833943 0.034277871
-0.017303715 -0.010589863 0.034692172
0.01786988 -0.010399921 0.034547288
-0.017335335 -0.0075855255 0.034571972
0.017865213 -0.0075011952 0.034805607
-0.017357986 -0.0042905062 0.034874041
0.017856954 -0.0045187701 0.034496415
-0.017375732 -0.0016362857 0.03452282
0.017835371 -0.001519099 0.034301106
-0.017404731 0.0014794457 0.034517549
0.017804628 0.0015032667 0.03469963
-0.017455962 0.0047788075 0.034794766
0.017772514 0.0047601098 0.034911707
-0.017501185 0.0075822193 0.034261644
0.017740758 0.0075152395 0.034618761
-0.01753317 0.010455628 0.034409054
0.017685248 0.010332294 0.034433886
-0.017510545 0.013552085 0.034435637
0.017611487 0.013019201 0.033937287
-0.016112307 0.016475258 0.034570102
-0.013701373 0.017449362 0.034238182
-0.010311628 0.017607242 0.034643102
-0.0074506169 0.0176607 0.034484159
-0.0044966135 0.017697686 0.034216471
-0.0012889832 0.017735211 0.034443919
0.0010245863 0.017757464 0.03450793
0.0043613543 0.017760398 0.0343666
0.007384338 0.017750114 0.034644023
0.01070436 0.017736511 0.034427799
0.013438127 0.017691392 0.034727369
0.016805528 0.01618275 0.034510616
-0.016078951 -0.016332081 0.037587054
-0.013297647 -0.017361725 0.037625831
-0.010453653 -0.017411752 0.037508849
-0.0075425706 -0.017425328 0.037462663
-0.0043778731 -0.017440425 0.037493501
-0.0017081102 -0.017435109 0.037416719
0.0015822565 -0.017404841 0.037457131
0.0046435711 -0.017361993 0.037409499
0.0078326724 -0.017285325 0.037781797
0.010519611 -0.017218838 0.037363909
0.013482281 -0.017116431 0.037772734
0.016466191 -0.016275926 0.037535843
-0.017184686 -0.013834063 0.037720274
0.017793372 -0.013237365 0.037857555
-0.017304042 -0.010359854 0.037208829
0.017868103 -0.010730199 0.037445258
-0.017331166 -0.0074503799 0.037663709
0.017863702 -0.0075228782 0.037504982
-0.017353714 -0.0047167116 0.037562024
0.017862514 -0.0043750089 0.037593715
-0.017375246 -0.0015357631 0.037499461
0.017840138 -0.0014756009 0.037171386
-0.017405111 0.0014785614 0.03756988
0.017805731 0.0016760803 0.037590351
-0.017455887 0.0045822039 0.037425917
0.017776037 0.0043855296 0.037471492
-0.017498551 0.00735687 0.038046427
0.017735314 0.0076560881 0.037444349
-0.017535541 0.010551394 0.037466954
0.017686395 0.010334721 0.037432712
-0.017435962 0.014018898 0.037528329
0.017557289 0.01403936 0.037707094
-0.016311135 0.016373461 0.037655767
-0.013721549 0.017472949 0.037727393
-0.010525826 0.017606689 0.037468761
-0.0072837397 0.017667213 0.038037129
-0.004313577 0.01771765 0.037743557
-0.001322293 0.017747335 0.037452541
0.0016024838 0.01776173 0.03772787
0.0045627481 0.017770249 0.037317399
0.0071660876 0.017768972 0.037561074
0.01048425 0.017754713 0.037716616
0.013600067 0.017682161 0.037265286
0.016780823 0.016280698 0.037478294
-0.015995033 -0.01639065 0.040319026
-0.013661604 -0.017317239 0.04075186
-0.010415611 -0.017415909 0.040673472
-0.0074195093 -0.017432462 0.04044053
-0.0046102586 -0.017443405 0.040666264
-0.0015690107 -0.017432041 0.040695995
0.00157474 -0.017407771 0.040577389
0.0045118714 -0.017369352 0.040159471
0.0076466845 -0.017294923 0.040723469
0.010523899 -0.017221935 0.040605064
0.013666882 -0.01710416 0.04039022
0.016340433 -0.016277066 0.040706962
-0.017264692 -0.013154568 0.040588122
0.017733261 -0.01369282 0.040347002
-0.017328581 -0.01058317 0.040468466
0.017850524 -0.010476768 0.040654946
-0.01734418 -0.0077300547 0.040340271
0.017861258 -0.007704732 0.040553428
-0.0173654 -0.0043006837 0.04052579
0.017864905 -0.004713288 0.040579662
-0.017390287 -0.0013998073 0.040445663
0.017838398 -0.001627798 0.040573388
-0.017426303 0.0016048277 0.040350135
0.017805338 0.0013466848 0.040263861
-0.017481079 0.0043360321 0.040755592
0.017772663 0.0042112404 0.040486109
-0.017530182 0.0078765443 0.040367689
0.017725853 0.0074589206 0.040620133
-0.017563213 0.010527956 0.040533502
0.017669097 0.010583781 0.040629681
-0.017523197 0.013647075 0.040858779
0.017547792 0.013857345 0.039947525
-0.016333325 0.016368251 0.040788926
-0.013718128 0.017455578 0.04031828
-0.010582292 0.017595507 0.040760376
-0.0072283461 0.017664578 0.040160369
-0.0047477442 0.017708739 0.040379211
-0.0015831687 0.017742299 0.040520944
0.001596894 0.017760566 0.040311988
0.0045043733 0.017772226 0.040539555
0.0073638335 0.017772714 0.040537372
0.010995295 0.017749146 0.040481698
0.013780027 0.017668482 0.040660031
0.016601859 0.016404264 0.040347505
-0.016424425 -0.016015517 0.043672387
-0.013416699 -0.017322432 0.043531273
-0.010885979 -0.017414102 0.043274183
-0.0078481436 -0.017434316 0.043317396
-0.0042567537 -0.017445713 0.043322966
-0.0015271598 -0.017430261 0.043438874
0.0016760321 -0.017409086 0.043456055
0.0045597418 -0.017369995 0.043527856
0.0079090595 -0.017289957 0.043492857
0.01004598 -0.017237784 0.043479651
0.013210444 -0.017138513 0.043490555
0.016533639 -0.016174885 0.043685135
-0.017224686 -0.013527154 0.043352451
0.017759031 -0.013605379 0.04377874
-0.017348688 -0.010506435 0.043505475
0.017871942 -0.0098354295 0.043885898
-0.017365215 -0.0075694821 0.043239973
0.017877394 -0.007616865 0.043572068
-0.017383594 -0.0040226006 0.043072857
0.017859995 -0.0044024969 0.043577608
-0.017414147 -0.0015580649 0.043719355
0.017832162 -0.0014006168 0.043305721
-0.017445086 0.0012219982 0.043449819
0.017806927 0.0012871783 0.043408271
-0.017504841 0.0044409689 0.043638382
0.017775521 0.0045216619 0.043298446
-0.017549805 0.0072377464 0.04354839
0.017731898 0.0073648863 0.043641433
-0.017586768 0.010266553 0.043753471
0.017672624 0.010337306 0.043434903
-0.017532244 0.013649103 0.043447368
0.017573087 0.013684341 0.043288369
-0.016246377 0.016449491 0.043487959
-0.013246358 0.017484905 0.043328829
-0.010588212 0.017581431 0.043465164
-0.0076235062 0.017642461 0.043532651
-0.0044804034 0.017691541 0.043816868
-0.0015246387 0.017723992 0.043213636
0.0011550002 0.017743951 0.043866966
0.0045283404 0.017765312 0.043156911
0.0072046951 0.017754545 0.043248881
0.010305703 0.017733742 0.043445185
0.013467995 0.017685961 0.043582421
0.016500473 0.016406842 0.043303393
-0.016212262 -0.016208379 0.046467736
-0.01363666 -0.017301718 0.046408433
-0.010381578 -0.017418796 0.046452463
-0.0072203586 -0.017443119 0.046288438
-0.0043519465 -0.017454328 0.046482835
-0.001795691 -0.017440906 0.046539098
0.0012602073 -0.017417187 0.046278767
0.0045019118 -0.01737841 0.04651447
0.0074190218 -0.017312812 0.046467412
0.010625391 -0.017232655 0.046576694
0.013486583 -0.017137153 0.046121258
0.016476894 -0.016260227 0.046364356
-0.017232951 -0.013622346 0.047016326
0.017770547 -0.013318476 0.046226379
-0.0173521 -0.010781878 0.046337232
0.017876001 -0.010795747 0.04674039
-0.017382855 -0.0076034209 0.046698522
0.01789326 -0.0072665075 0.046600446
-0.017401019 -0.0045692823 0.046362143
0.017860712 -0.0045900475 0.047087248
-0.017433602 -0.0015589455 0.046559956
0.017833486 -0.0017852716 0.046486996
-0.017469585 0.0015769313 0.046450283
0.017803168 0.0015199294 0.046583328
-0.017514542 0.0045696511 0.046448916
0.01777534 0.0043247673 0.046551872
-0.017552461 0.0072926311 0.046159793
0.017727148 0.0075559416 0.046499785
-0.017589496 0.010272102 0.046188109
0.017670263 0.01054726 0.046860222
-0.017544156 0.013568282 0.046428718
0.017619831 0.013064548 0.046668179
-0.016538786 0.016087746 0.046398092
-0.013409873 0.017458331 0.046835955
-0.010448452 0.01757787 0.0464295
-0.0077308416 0.017634351 0.046465576
-0.0045168684 0.017684042 0.046686389
-0.0014128607 0.017714323 0.046583738
0.001315816 0.017736783 0.047007114
0.0043403669 0.01775272 0.046557788
0.0075397599 0.017739916 0.046447966
0.010489959 0.017721262 0.04633911
0.013322591 0.017680127 0.046499643
0.016403966 0.016588099 0.046188217
-0.016184432 -0.016245915 0.049480893
-0.013715723 -0.017310256 0.049621698
-0.010075299 -0.017428918 0.049518727
-0.0074296682 -0.017447302 0.049227111
-0.0044049709 -0.017464368 0.04961659
-0.0015001681 -0.01744831 0.049656209
0.0014634231 -0.017420959 0.049539857
0.0042949235 -0.017390041 0.049610566
0.0080803223 -0.017307082 0.0494923
0.010348003 -0.017246889 0.049431469
0.013565853 -0.017140903 0.049355369
0.016474715 -0.016255047 0.049625404
-0.017251499 -0.013238091 0.049528491
0.01771231 -0.013715482 0.049922615
-0.017348388 -0.010599834 0.049663838
0.017860655 -0.010259644 0.049572241
-0.017383307 -0.007315726 0.049151972
0.01787819 -0.007518807 0.049438562
-0.017407052 -0.004185969 0.049496308
0.017854908 -0.0045830728 0.049335461
-0.017425656 -0.0016537331 0.049935199
0.017826151 -0.0015162645 0.04998577
-0.01745972 0.001478704 0.049404569
0.017795926 0.0017441254 0.04938956
-0.017501777 0.0043999455 0.049757861
0.017763926 0.0045722006 0.049503844
-0.017553624 0.0076463204 0.049423307
0.01771635 0.0078325579 0.049412731
-0.017595954 0.010771533 0.049337786
0.017664436 0.010520113 0.049581204
-0.017555855 0.013600687 0.049467433
0.017567523 0.013620058 0.049642809
-0.016380955 0.016305851 0.049311761
-0.013398453 0.017435228 0.049455132
-0.01030314 0.017561754 0.049564134
-0.0075653368 0.017632565 0.049240295
-0.0045290557 0.017679883 0.049366582
-0.0016825171 0.01770477 0.049902707
0.0017111324 0.017728882 0.049355958
0.0047646677 0.017744191 0.048941199
0.0076057795 0.01773254 0.049435087
0.010540142 0.017718373 0.049259264
0.013395935 0.017677203 0.049749359
0.016507996 0.016504914 0.049562968
-0.016054984 -0.016335554 0.052747395
-0.013484169 -0.017352857 0.052778419
-0.01036525 -0.017436255 0.052485716
-0.0074713449 -0.017453942 0.052195244
-0.0046562273 -0.017468747 0.051952742
-0.0013046869 -0.017455023 0.052488979
0.0017168247 -0.01743057 0.05247255
0.0043120407 -0.01739536 0.052554239
0.0076809004 -0.017320063 0.052690506
0.010362449 -0.017252181 0.052347276
0.013412092 -0.01715821 0.052634377
0.016514402 -0.016195176 0.052332021
-0.017218379 -0.013447278 0.052739341
0.017725946 -0.013589355 0.052096155
-0.017329477 -0.010910826 0.05220256
0.017840043 -0.010472787 0.052704956
-0.017358119 -0.0076682935 0.052298613
0.01785777 -0.0076879268 0.052494969
-0.017382143 -0.0046183807 0.052584149
0.017844744 -0.0042799269 0.051932186
-0.017410506 -0.0012807415 0.052632302
0.017818861 -0.0013015312 0.052919488
-0.017443419 0.0014932565 0.052463561
0.017793991 0.0011521465 0.052326106
-0.017487768 0.0044388957 0.052455459
0.017753009 0.0046353852 0.052748539
-0.017542904 0.0077667581 0.052335095
0.017721634 0.0070396792 0.052523199
-0.017591646 0.01075922 0.05248021
0.017663404 0.010312094 0.052532073
-0.017561689 0.013508159 0.052568223
0.017530665 0.014021167 0.05259265
-0.016467011 0.016179996 0.052372217
-0.013631474 0.017401939 0.052549541
-0.010586565 0.01753914 0.052297711
-0.0073748524 0.017626317 0.052051675
-0.0049264273 0.017670592 0.052212272
-0.0017463807 0.017695343 0.052580021
0.0013801981 0.017714011 0.052486043
0.0044978359 0.01773287 0.052262411
0.0078309393 0.017730847 0.052588306
0.010214954 0.017718818 0.052321021
0.013414051 0.01765513 0.052678827
0.016466534 0.016583301 0.052488461
-0.016121648 -0.016290128 0.055398449
-0.013537118 -0.017367853 0.056007419
-0.010414437 -0.017436678 0.055564705
-0.0076871337 -0.017450264 0.055418201
-0.00426692 -0.01746094 0.055452932
-0.0019920962 -0.017454688 0.055591322
0.0012569984 -0.017435363 0.055633374
0.0043532848 -0.017389642 0.055474747
0.0076511754 -0.017313009 0.05545282
0.010673019 -0.01724161 0.055653363
0.013470337 -0.017154068 0.055726055
0.016447034 -0.016256329 0.05515746
-0.017216487 -0.013426252 0.055468734
0.017714132 -0.013721904 0.055249311
-0.017315675 -0.010910153 0.055786856
0.017834837 -0.010665502 0.055468727
-0.017348196 -0.0072457488 0.05554086
0.017843794 -0.007488349 0.055702139
-0.017367611 -0.0047314772 0.05579219
0.01783956 -0.0045935465 0.055299371
-0.017395899 -0.0015680265 0.055621717
0.017816968 -0.0018222721 0.05572572
-0.017434701 0.0016607922 0.054992247
0.017783601 0.0011545691 0.055527311
-0.017474322 0.0044410271 0.055585299
0.017744765 0.0045648571 0.055595346
-0.017523846 0.0077104555 0.05543603
0.017712036 0.007101554 0.055575222
-0.01757272 0.010790737 0.055309337
0.017651776 0.01045015 0.055947836
-0.017531661 0.013354879 0.055446658
0.017560959 0.013491537 0.055562783
-0.016319243 0.016324574 0.055480454
-0.013392381 0.017469116 0.055721659
-0.010592647 0.017564865 0.05553728
-0.0077441148 0.017623769 0.055361208
-0.0047584074 0.017670579 0.055179544
-0.0015632125 0.017697131 0.055334121
0.0014593664 0.017720047 0.055711083
0.0045576692 0.017737743 0.055470068
0.0078553529 0.017739723 0.055524632
0.010821677 0.01772543 0.055727642
0.013940938 0.017618256 0.055635571
0.016427465 0.016611537 0.05563762
-0.016189111 -0.016203891 0.058523748
-0.013460052 -0.017356016 0.058422137
-0.010393452 -0.017419076 0.058475848
-0.0074298121 -0.017439043 0.058577474
-0.0046628439 -0.017444992 0.058651429
-0.0019658706 -0.017443132 0.058232076
0.0013762849 -0.017419629 0.058519151
0.0044335974 -0.017378723 0.05866535
0.007508676 -0.017306922 0.058436587
0.010514151 -0.017236976 0.058167208
0.013584425 -0.017128754 0.058574863
0.016678158 -0.015970659 0.05865524
-0.017235203 -0.013306946 0.058348428
0.017735243 -0.013434111 0.058318261
-0.017316384 -0.010669969 0.058494065
0.017833697 -0.010020642 0.058638837
-0.017341204 -0.0075555872 0.058443703
0.01783276 -0.0075625377 0.058615755
-0.017364493 -0.0047583738 0.058428511
0.017829698 -0.0047292369 0.058310244
-0.017400021 -0.0013518922 0.058408409
0.017800715 -0.0012655585 0.058808748
-0.017435921 0.0016114825 0.058893945
0.017772861 0.001231384 0.058632217
-0.017474279 0.0045787673 0.058694024
0.017738001 0.0044814697 0.058075245
-0.017511666 0.0072190193 0.058626655
0.017695811 0.0075026783 0.058789846
-0.017552979 0.010412164 0.058704928
0.017645596 0.0104303 0.05844323
-0.017510084 0.013405498 0.058511831
0.017520895 0.013964772 0.058904588
-0.016100988 0.016534027 0.058572814
-0.013494991 0.017471461 0.058521513
-0.010682757 0.017579444 0.058177833
-0.0075942012 0.017635679 0.05831778
-0.0047403607 0.017675791 0.05865065
-0.0013937074 0.017708791 0.058874268
0.0014071314 0.017728167 0.058515709
0.0042486941 0.01774171 0.058452334
0.0072309342 0.017745584 0.058659583
0.010684934 0.017733688 0.058902062
0.013247123 0.01767936 0.058613412
0.016388401 0.016584331 0.058331668
-0.016103072 -0.016279772 0.061640345
-0.013614854 -0.017294442 0.061349601
-0.010489789 -0.017396163 0.061921932
-0.0068288716 -0.017430091 0.061296478
-0.0042619952 -0.017431023 0.061605886
-0.0013964222 -0.017426498 0.061475679
0.0018485003 -0.017398091 0.061862279
0.0046918299 -0.017365074 0.06099306
0.007576725 -0.017299192 0.061373711
0.010933911 -0.017216686 0.061153196
0.013693741 -0.01711148 0.061368831
0.016153552 -0.016435288 0.061661959
-0.017209355 -0.013721225 0.061710805
0.017717814 -0.013512976 0.06144752
-0.01730991 -0.010858914 0.061650842
0.017827978 -0.0099995295 0.06156946
-0.017337214 -0.0076153516 0.061491936
0.017827643 -0.0077699646 0.061412219
-0.01737041 -0.0044303769 0.061451204
0.01782188 -0.0045452802 0.061394092
-0.01740356 -0.0016337504 0.061622951
0.017794419 -0.0014776783 0.06153512
-0.017439863 0.0014788592 0.061502025
0.017759107 0.0016385915 0.06158061
-0.017479984 0.0048105232 0.0615687
0.017724873 0.0046747434 0.061532024
-0.017515153 0.0074539613 0.061627608
0.017687997 0.0074766735 0.061611544
-0.017558521 0.010727292 0.061563913
0.01763319 0.01044073 0.061452836
-0.017519522 0.013392252 0.061523762
0.01754507 0.013316211 0.061662812
-0.016542718 0.016075935 0.061726023
-0.013862823 0.01743212 0.061419945
-0.010595707 0.017588628 0.06145715
-0.0076975985 0.017638545 0.06153556
-0.0046866005 0.017677989 0.061415628
-0.0016425372 0.017711751 0.061272703
0.0015164918 0.017736971 0.061584558
0.0045214249 0.017745225 0.061419364
0.0076992391 0.017749147 0.061571039
0.010419877 0.017743127 0.061156783
0.01312399 0.017694464 0.061475243
0.01670845 0.01619944 0.061687551
-0.016282167 -0.016079586 0.06415277
-0.013592926 -0.01730492 0.064380392
-0.010552444 -0.017403172 0.064371921
-0.0075914394 -0.017431621 0.064647608
-0.0045066141 -0.017437939 0.064502031
