# .PCD v0.7 - Point Cloud Data file format
VERSION 0.7
FIELDS x y z
SIZE 4 4 4
TYPE F F F
COUNT 1 1 1
WIDTH 1268
HEIGHT 1
VIEWPOINT 0 0 0 1 0 0 0
POINTS 1268
DATA ascii
0.027666649 0.0066635534 -0.010607716
-0.025077289 0.010446498 -0.010326602
0.025328487 0.010631857 -0.010343828
-0.02773319 0.01432606 -0.010829733
-0.026158506 0.012814825 -0.010499738
0.026426757 0.012534634 -0.01041668
0.027658721 0.013981831 -0.010507067
-0.028411403 0.016279703 -0.010424965
0.028289367 0.01639474 -0.010657009
-0.028511802 0.019529073 -0.010435663
0.028330721 0.019629173 -0.010534902
-0.02844655 0.022382896 -0.010732074
0.028342163 0.022513065 -0.010631841
-0.02784754 0.025198083 -0.01067153
-0.026818519 0.026789095 -0.0098147839
-0.013019613 0.026306022 -0.010535076
-0.010460272 0.025252122 -0.010218129
-0.0084393052 0.026392683 -0.010737536
0.008286777 0.026208511 -0.010732643
0.010485136 0.025182532 -0.01046274
0.012859571 0.026226364 -0.010433808
0.026743293 0.026587021 -0.010372304
0.027682533 0.025267614 -0.010742061
-0.0253726 0.027805958 -0.010482732
-0.022658806 0.028427467 -0.01052156
-0.019506108 0.028431827 -0.010419614
-0.016507426 0.028383888 -0.010589517
-0.014182222 0.027515428 -0.010332544
-0.0070213242 0.027746106 -0.010508168
-0.0044164616 0.028397052 -0.010302217
-0.0014920576 0.028392786 -0.010319494
0.0016395925 0.028391844 -0.010374587
0.0046998966 0.028364848 -0.010591329
0.006784949 0.027761443 -0.010349493
0.014208356 0.027583269 -0.010327592
0.016679944 0.028306317 -0.010548849
0.019585174 0.028325235 -0.010398243
0.022414554 0.028291704 -0.010423539
0.025359983 0.027538119 -0.01058135
-0.025383553 -0.027729485 -0.0072727771
-0.022291953 -0.028260875 -0.0075406744
-0.019522535 -0.028251378 -0.0073288279
-0.016481254 -0.028254798 -0.0073400908
-0.013715276 -0.027970672 -0.0072275773
-0.010560398 -0.02768705 -0.0067261606
-0.0076239635 -0.027826302 -0.0076131034
-0.0046028602 -0.028220274 -0.0076589799
-0.0014078689 -0.028213136 -0.0076893941
0.0016000771 -0.028207788 -0.0073179197
0.0045787073 -0.02820343 -0.0073100249
0.0075778062 -0.027869223 -0.0074365605
0.01020154 -0.027540835 -0.0068198596
0.013663732 -0.027913295 -0.0074429885
0.016414644 -0.028197099 -0.0074944329
0.019353785 -0.028202711 -0.0076429644
0.022492683 -0.028200816 -0.007293663
0.024988811 -0.027591797 -0.0077073416
-0.027776612 -0.025351325 -0.0073895119
-0.026835755 -0.026766384 -0.0070360089
-0.012523309 -0.026507415 -0.0085182758
-0.010585164 -0.026251273 -0.0082416534
-0.008537895 -0.02676253 -0.0087478384
0.0086040813 -0.026753679 -0.0085188206
0.01048604 -0.026258271 -0.0082747135
0.012424431 -0.026563933 -0.0084664002
0.026631683 -0.02638129 -0.0076660803
0.027573824 -0.024992567 -0.0076129446
-0.028429527 -0.022398187 -0.0075954632
0.028160619 -0.02264896 -0.0073911478
-0.02860293 -0.019476496 -0.0075204396
0.028281607 -0.019428302 -0.0074512223
-0.028592944 -0.016435912 -0.0075363335
0.028270047 -0.016483303 -0.0075918748
-0.028220685 -0.013546158 -0.0071494537
-0.02682858 -0.012616279 -0.0084656514
0.026655817 -0.012798045 -0.0085242232
0.027900789 -0.013616457 -0.0072882464
-0.027831906 -0.010441544 -0.0068005575
-0.026345056 -0.010870884 -0.0082596298
0.02639859 -0.010573036 -0.0082556214
0.027660634 -0.010507501 -0.0069374987
-0.028051004 -0.0073849461 -0.0077226767
-0.026757576 -0.0085596852 -0.0087150931
0.026852043 -0.0086502247 -0.0087822052
0.028016839 -0.0075433189 -0.0074481536
-0.028552819 -0.0046802061 -0.007361331
0.028302947 -0.0046211313 -0.0076159085
-0.028545886 -0.0015759949 -0.0076582767
0.028314235 -0.0014506686 -0.0075840564
-0.028537886 0.0015147163 -0.0074688704
0.028311493 0.0015494233 -0.0074546738
-0.028526645 0.0044328342 -0.0073514073
0.02829833 0.0043489016 -0.0075416551
-0.028099829 0.0074135051 -0.0076106894
-0.026636843 0.0088655483 -0.0085257161
0.026658708 0.0085511953 -0.0086526843
0.027941259 0.0076959063 -0.0073811281
-0.027738662 0.010469288 -0.006930402
-0.026306504 0.010799769 -0.0083198277
0.026334548 0.010781181 -0.0084629776
0.027795736 0.010353458 -0.006875054
-0.027901985 0.013587225 -0.0077339211
-0.02669345 0.012607529 -0.0086431326
0.026709264 0.012255531 -0.0087447036
0.027989702 0.01353053 -0.0075723408
-0.028497806 0.016578943 -0.007471228
0.028313389 0.016695406 -0.0073705129
-0.028494952 0.019280642 -0.0075882836
0.028328829 0.019614214 -0.0076149399
-0.028405596 0.022368627 -0.0076328465
0.028334202 0.022532087 -0.0074853157
-0.027763829 0.025197338 -0.0075139268
-0.02675513 0.026784692 -0.0074960198
-0.012353894 0.02675877 -0.0087584862
-0.010523883 0.026544631 -0.0086478321
-0.0089382511 0.026984269 -0.0087749064
0.0086972881 0.026847094 -0.008745241
0.01059173 0.026447987 -0.0085306307
0.012526937 0.026631916 -0.008919999
0.026664013 0.026618382 -0.0074633965
0.027592875 0.025371848 -0.007460739
-0.025440853 0.027706634 -0.007697599
-0.022515012 0.028408101 -0.0074259499
-0.019184297 0.028436821 -0.0071255346
-0.016671266 0.028415447 -0.0078154122
-0.013356793 0.028067278 -0.007522352
-0.010607323 0.027816029 -0.0072058477
-0.0074378611 0.028106425 -0.0077350382
-0.0046103196 0.028404038 -0.007399369
-0.0014465792 0.028386697 -0.0074426737
0.0016200397 0.028382881 -0.0076012802
0.0043607736 0.028381292 -0.0074637602
0.0076977247 0.028027425 -0.007494879
0.010485519 0.02771176 -0.0071042879
0.013501173 0.02804332 -0.0074846055
0.016352907 0.028333252 -0.0074273702
0.019622624 0.028322233 -0.0075619062
0.022506092 0.028271733 -0.0073631494
0.025039345 0.027711257 -0.0075396351
-0.025583936 -0.027633466 -0.0044545131
-0.022598095 -0.028296065 -0.0042187911
-0.019338291 -0.028300634 -0.0044399756
-0.016402595 -0.028271886 -0.0043440722
-0.013497029 -0.028221833 -0.0045413887
-0.010404154 -0.028215572 -0.0041275038
-0.007634805 -0.028214268 -0.0044297995
-0.0043724817 -0.02820635 -0.0046993559
-0.0014649867 -0.02820513 -0.0044127717
0.0014047524 -0.028201304 -0.004458318
0.0045124083 -0.02819569 -0.0045093102
0.0073027746 -0.028166486 -0.0045269048
0.010604586 -0.028127551 -0.0042979578
0.013252732 -0.028180694 -0.0044869883
0.016488269 -0.028185999 -0.004512826
0.019419651 -0.028186629 -0.0047399616
0.022699868 -0.02817977 -0.0042775534
0.025147747 -0.02750222 -0.004375428
-0.027676918 -0.025602682 -0.0043594278
-0.026764018 -0.026854133 -0.0052106231
0.026570328 -0.026443515 -0.0043806154
0.027567651 -0.025065118 -0.0043189824
-0.028521333 -0.022559045 -0.0045376369
0.028215624 -0.022347821 -0.0045752409
-0.028610313 -0.019516703 -0.0046608928
0.028275397 -0.019455079 -0.0043315184
-0.028608017 -0.016502913 -0.0047112335
0.028282093 -0.016554657 -0.0044596256
-0.028576937 -0.013526001 -0.004507469
0.028278157 -0.013351866 -0.0043256041
-0.028547691 -0.010436398 -0.0046569132
0.028260117 -0.010483734 -0.0047021327
-0.028561978 -0.0075445161 -0.0043202499
0.028293859 -0.0074258083 -0.0043425225
-0.028560439 -0.0045343298 -0.004490504
0.02830012 -0.004257794 -0.0044518868
-0.02854611 -0.0017154558 -0.0046250839
0.028302126 -0.0016125879 -0.0045966157
-0.028535794 0.0017290876 -0.0045532724
0.028306365 0.0014476402 -0.0043953075
-0.028525125 0.0046592574 -0.0047048652
0.028303256 0.0045266557 -0.0044049989
-0.028508946 0.0075194421 -0.0044937958
0.028306017 0.0076510236 -0.0045184549
-0.028498843 0.010468781 -0.0045154216
0.028288886 0.01039712 -0.0046008714
-0.028517406 0.013315101 -0.0042771655
0.02831419 0.013563385 -0.0044560209
-0.028533248 0.016486187 -0.0045648073
0.028301405 0.016539467 -0.0047677276
-0.028515736 0.019338433 -0.0044191722
0.028314969 0.019544287 -0.0045984844
-0.028346322 0.022773469 -0.0044189566
0.028317476 0.022673527 -0.0043076104
-0.02763305 0.025315782 -0.0044376245
-0.026702015 0.026806854 -0.0050363801
0.026625995 0.026646934 -0.0044293003
0.027783783 0.024973173 -0.0046652746
-0.025415562 0.027694304 -0.0045250319
-0.022699548 0.028275756 -0.0044958508
-0.019335661 0.028399087 -0.0046889321
-0.016650068 0.028396485 -0.00451604
-0.013438943 0.02840656 -0.0044164322
-0.010521108 0.028403785 -0.0046918029
-0.007402984 0.028396221 -0.0044905487
-0.0045267101 0.028383097 -0.0043439977
-0.0017254397 0.028375294 -0.0045185825
0.0016962129 0.028371897 -0.0046697231
0.0045835786 0.028368575 -0.0045934115
0.0076384242 0.028357815 -0.00440179
0.010283012 0.028323758 -0.0045024189
0.013635443 0.028328845 -0.0045376504
0.016305493 0.028324142 -0.0045304657
0.019414693 0.028320575 -0.0046012625
0.022403367 0.028213879 -0.0044332631
0.025348965 0.027515654 -0.0045194714
-0.025369098 -0.027750432 -0.0013873605
-0.022354495 -0.028298672 -0.001460132
-0.019684337 -0.028606383 -0.0014024527
-0.016518569 -0.028638458 -0.0017900771
-0.013421956 -0.028223569 -0.001488775
-0.010544018 -0.028181234 -0.0013515825
-0.0073950239 -0.028184772 -0.0014944663
-0.0046523502 -0.028189376 -0.0012923899
-0.0014890195 -0.028200328 -0.0014970435
0.0013471207 -0.02819968 -0.0015644422
0.0045242072 -0.028191777 -0.0016066527
0.0077317236 -0.028180083 -0.0015418206
0.010756457 -0.02817446 -0.0013709703
0.013274357 -0.028181704 -0.0013177681
0.016312877 -0.028193275 -0.0015510399
0.01947698 -0.028167374 -0.0015591601
0.022366961 -0.028161803 -0.0016024098
0.024997132 -0.027613992 -0.0015503565
-0.027828321 -0.025395403 -0.0014280414
-0.02674127 -0.026852382 -0.0013606726
0.026576269 -0.026513753 -0.001037857
0.027575336 -0.025150558 -0.0013797542
-0.0285763 -0.022429334 -0.0016559298
0.028231841 -0.02270944 -0.0015183627
-0.028619513 -0.01952612 -0.001481984
0.028261321 -0.019322785 -0.0014562999
-0.028612746 -0.01654934 -0.0012519477
0.028255785 -0.016333269 -0.0015341308
-0.028600309 -0.013618276 -0.0015503496
0.028264815 -0.013604327 -0.0016265062
-0.028589258 -0.010438222 -0.0014146945
0.028275693 -0.010493467 -0.0015011382
-0.028581034 -0.0076964861 -0.0015165341
0.028285077 -0.0073942239 -0.0012766643
-0.028561311 -0.0045759273 -0.0015940797
0.028287344 -0.0044091498 -0.0015694518
-0.028544098 -0.0013147227 -0.0013844587
0.028276257 -0.0013540649 -0.0015877662
-0.028534139 0.0014078652 -0.0014262465
0.028285496 0.001544388 -0.0012820869
-0.028523009 0.0046405974 -0.0013234118
0.028294288 0.0047161812 -0.001373135
-0.028517114 0.0074958084 -0.0014425184
0.028295046 0.0075753415 -0.0015504396
-0.02852568 0.010617885 -0.0015747329
0.028300229 0.010371669 -0.0014966829
-0.028539455 0.0135036 -0.0013733092
0.028301116 0.013473636 -0.0013871202
-0.02855267 0.016621159 -0.0017028993
0.028272109 0.016587477 -0.0014499499
-0.028528634 0.01965341 -0.0015332752
0.028270291 0.019516736 -0.0014780884
-0.028423639 0.022127945 -0.0015053471
0.028310386 0.022401651 -0.0014506734
-0.027667291 0.025391484 -0.0014237562
-0.026799995 0.026842076 -0.0020257309
0.026613994 0.026657311 -0.0014371392
0.027696516 0.025155362 -0.0013414138
-0.025416382 0.027675843 -0.0015450614
-0.022622311 0.028250372 -0.0015145454
-0.019309657 0.028376548 -0.0014366745
-0.016670713 0.028369809 -0.0014695914
-0.013573782 0.028399184 -0.0016184374
-0.01033471 0.028396597 -0.0013883639
-0.0075181243 0.028388895 -0.0017264627
-0.0044802027 0.028380156 -0.0015922292
-0.0013336873 0.028367326 -0.0014543601
0.0015988215 0.028362915 -0.0015735319
0.0046005747 0.028359752 -0.0015464078
0.0073197293 0.028356006 -0.0014692782
0.010231015 0.028349975 -0.0013775607
0.013478817 0.028340848 -0.0015671835
0.016434919 0.028335273 -0.0014486407
0.019661017 0.028326252 -0.0014379653
0.022691721 0.028165303 -0.0014050783
0.025009396 0.027652595 -0.0015913461
-0.02541298 -0.027639251 0.0010557908
-0.022151016 -0.028251885 0.0015350173
-0.019446133 -0.028673291 0.0014375502
-0.016580701 -0.028771266 0.0013997899
-0.013346984 -0.028285433 0.0014715815
-0.010564449 -0.028185545 0.0014793564
-0.0072389026 -0.028185593 0.0014664817
-0.0046406621 -0.028186796 0.0017559297
-0.0015870091 -0.028194323 0.0014096823
0.0014267981 -0.028199917 0.0015819753
0.0044275355 -0.028191719 0.0012959085
0.0074022268 -0.028182592 0.0014717531
0.010553518 -0.028176382 0.0016146713
0.013383624 -0.02818482 0.001459415
0.01637386 -0.028202383 0.0015848585
0.019443581 -0.028191116 0.0017635273
0.022550939 -0.028193895 0.0014916993
0.025226995 -0.027534559 0.0012281315
-0.027771471 -0.025381027 0.0016664878
-0.026685223 -0.026766792 0.0016639408
0.026646487 -0.026441174 0.0015422573
0.027536405 -0.025129501 0.001462097
-0.028587641 -0.02251675 0.0014946209
0.028196435 -0.022471366 0.0017377108
-0.028629327 -0.019334808 0.0015886987
0.028253855 -0.019348171 0.0015787168
-0.028599055 -0.016618824 0.0014886548
0.02825062 -0.016406247 0.0013039957
-0.028583955 -0.013516768 0.0014248888
0.028256854 -0.013373646 0.0015330886
-0.028588586 -0.010311784 0.0012117623
0.028270517 -0.010520444 0.0015738853
-0.028584629 -0.0075148051 0.0017218562
0.028285228 -0.0074994969 0.0017258544
-0.028564105 -0.0043975096 0.0013630496
0.02828042 -0.0043146005 0.0014791377
-0.028546957 -0.0017940198 0.0014935237
0.028266342 -0.0017492472 0.0014611739
-0.028541701 0.0015877717 0.0017492746
0.028267372 0.0013684387 0.0018614182
-0.028535279 0.0045035966 0.0016130509
0.028285466 0.0044381805 0.0015464077
-0.028535414 0.0075525576 0.0018577537
0.028287735 0.0073782569 0.0013673438
-0.028539214 0.010516892 0.0015808691
0.028293381 0.010547201 0.0014669509
-0.028544134 0.013447385 0.001639643
0.028310107 0.013597757 0.001274264
-0.028550161 0.016599895 0.0015493992
0.028329918 0.016447427 0.0017213702
-0.028532635 0.019481357 0.0014394153
0.028327998 0.019528151 0.0016407499
-0.028448714 0.022588594 0.0015323061
0.028321557 0.022722332 0.0015330563
-0.027833723 0.025185209 0.0017761239
-0.026787752 0.026711948 0.001677572
0.026547821 0.02674753 0.0017562733
0.027655028 0.025326258 0.0013870987
-0.025283925 0.027662564 0.0013948127
-0.022589518 0.02824486 0.0014065731
-0.01970589 0.028402166 0.0014920013
-0.016427586 0.028399326 0.0015801748
-0.013148715 0.02840119 0.0015309632
-0.010250454 0.028399507 0.0013283801
-0.0074089593 0.0283967 0.0013361727
-0.0046666875 0.028385917 0.001384993
-0.0014220244 0.028368508 0.0014647207
0.0012756601 0.028357586 0.0013558879
0.0046011405 0.02835308 0.0015455571
0.0073826956 0.028351683 0.0014230709
0.010528721 0.028353246 0.0016221026
0.013543092 0.028366154 0.0014958821
0.016785072 0.028373959 0.0016613901
0.019664256 0.028357442 0.0014818717
0.022460684 0.028212549 0.0013043851
0.025204696 0.027592152 0.001544252
-0.025222229 -0.027576642 0.0043934532
-0.022494402 -0.028192744 0.0046204412
-0.01943009 -0.028343398 0.0042634392
-0.016682284 -0.028339079 0.0046211402
-0.013441722 -0.028229244 0.0043764077
-0.010119392 -0.028213836 0.0043426887
-0.0076823127 -0.028212311 0.0045150202
-0.0045021679 -0.028197765 0.004476449
-0.0015351019 -0.028195567 0.0042337882
0.0015966003 -0.028199572 0.0045661242
0.0045961924 -0.028194819 0.0046151681
0.0078173904 -0.028183619 0.0045341337
0.010412312 -0.028173955 0.0045850752
0.013823324 -0.028183749 0.0044869483
0.01628704 -0.028191211 0.0046195714
0.019268773 -0.02818911 0.0045686937
0.022465158 -0.02819163 0.0044265157
0.025071457 -0.027564537 0.0045140176
-0.027686691 -0.025341794 0.0044653686
-0.026579989 -0.026678039 0.0046099694
0.026544163 -0.026480267 0.0044337083
0.027512101 -0.025057748 0.0044521969
-0.028515842 -0.022494415 0.0045160358
0.028163215 -0.022652339 0.0044962773
-0.028594384 -0.01953459 0.0046602418
0.028264465 -0.019560458 0.0046046809
-0.028590087 -0.016234048 0.0045810635
0.028266611 -0.016471388 0.0046581272
-0.028576521 -0.013248202 0.0046074069
0.028262615 -0.013391216 0.0045556189
-0.028570145 -0.01050464 0.0045153699
0.028292317 -0.01061257 0.0044077202
-0.028571313 -0.0074519156 0.0043810103
0.028316947 -0.0074192774 0.0044598142
-0.028560031 -0.0045782747 0.0045870896
0.028279589 -0.0045137373 0.0045026061
-0.028546939 -0.0014991285 0.0041640368
0.02825802 -0.0013293641 0.0044421423
-0.028549481 0.0014584291 0.0047764494
0.028267004 0.0015482025 0.0047790748
-0.028547727 0.0044693472 0.0045979307
0.028273439 0.0046117948 0.004389063
-0.028543169 0.0075654197 0.0045490572
0.028271655 0.0076826466 0.0045089442
-0.028532159 0.010429557 0.0044282824
0.028277241 0.010557839 0.0043551289
-0.028541533 0.013478458 0.0044922489
0.028301526 0.013616085 0.0044473633
-0.028538389 0.01663702 0.0046396474
0.028322201 0.01663914 0.0044131614
-0.028521944 0.019595461 0.004583593
0.028326664 0.019616749 0.0047390023
-0.028468469 0.02244026 0.0043796208
0.028291415 0.022583114 0.0045098355
-0.027714722 0.025398586 0.0044509382
-0.026821326 0.026674567 0.0040035192
0.026502524 0.02667987 0.004562798
0.02763297 0.025258638 0.0046116281
-0.025256004 0.027713813 0.0046759509
-0.022472432 0.02828439 0.0044473028
-0.019325737 0.028421171 0.0044668224
-0.016533749 0.028419014 0.0047421269
-0.013712388 0.028372215 0.0046355245
-0.010361023 0.028315486 0.0045823599
-0.0076150652 0.028397063 0.0044134455
-0.0045778463 0.028391818 0.0045911325
-0.0015575311 0.028383194 0.004415906
0.0015137813 0.028373078 0.0045007733
0.0044665188 0.028361982 0.0046445089
0.0073176245 0.028353548 0.004327374
0.010487991 0.028303122 0.0045915246
0.013630052 0.028365023 0.0042072549
0.01667795 0.02836919 0.0046551838
0.019270193 0.028372584 0.0045533902
0.022406761 0.02822906 0.0044343481
0.025083404 0.02760854 0.0044632591
-0.025017904 -0.027672093 0.007538449
-0.022467893 -0.028227963 0.007553387
-0.01950548 -0.028245237 0.0073781796
-0.016197311 -0.02823592 0.0075380281
-0.013465295 -0.028010089 0.0073718382
-0.010225496 -0.027626522 0.0073502809
-0.0076179095 -0.027997511 0.0073802867
-0.0042854822 -0.028211715 0.0074227629
-0.0015971171 -0.028206805 0.0074939323
0.0013659026 -0.028198577 0.007704509
0.0047127497 -0.028189018 0.0076130996
0.0072982837 -0.02802483 0.0074505624
0.010520442 -0.027711578 0.0071192849
0.013736852 -0.027929103 0.0074688951
0.016436195 -0.028175557 0.0073278849
0.019522823 -0.028166214 0.0073372326
0.022656638 -0.028136773 0.0075437934
0.025232783 -0.027513916 0.0074859723
-0.027673919 -0.025300404 0.0075145904
-0.026709555 -0.026601948 0.0073668864
-0.012323659 -0.026872836 0.0085817659
-0.010341156 -0.026489621 0.0085664066
-0.0088763274 -0.026950343 0.008649257
0.0087220222 -0.02689722 0.0087911226
0.010260385 -0.026521873 0.0085755512
0.012378379 -0.026728531 0.0087963482
0.026645573 -0.026471341 0.0076477942
0.027645694 -0.025046395 0.0075462321
-0.028391978 -0.022369584 0.0075367582
0.028225904 -0.022637473 0.0075498181
-0.028555136 -0.019628219 0.0074066138
0.028276388 -0.019496761 0.0074129873
-0.028558061 -0.01645376 0.0074726986
0.028262606 -0.016415166 0.0075620767
-0.028158886 -0.013536692 0.0074255187
-0.026590597 -0.012115716 0.0086263604
0.026438808 -0.012518573 0.0086743273
0.027913325 -0.013554459 0.0073141437
-0.027807554 -0.01068799 0.0070521771
-0.026445366 -0.010497399 0.0084602451
0.026367325 -0.010563218 0.0084221978
0.027678855 -0.010500784 0.0071605649
-0.028197074 -0.0074915383 0.0074321306
-0.026976194 -0.0082954299 0.0089360736
0.026936814 -0.0088359136 0.0085957171
0.02808734 -0.007579532 0.007576643
-0.028548898 -0.0042966688 0.0074996674
0.028272875 -0.004295263 0.0075154258
-0.028548101 -0.0014641604 0.0075995573
0.028257169 -0.0016483957 0.0076109511
-0.028544569 0.0012913919 0.0076421387
0.028268183 0.0012951702 0.0074914661
-0.028526904 0.0046741222 0.0075445296
0.028270597 0.0043487325 0.0075579998
-0.028255837 0.0073965685 0.0075185131
-0.026922207 0.0083819479 0.0089535462
0.026578037 0.0086691994 0.0086526601
0.027914587 0.0074099391 0.0076377052
-0.027793193 0.010607916 0.0070698648
-0.02638836 0.010932598 0.0085225143
0.026362656 0.010435523 0.0083917044
0.027713599 0.010632924 0.0069416906
-0.028032873 0.013435185 0.0075902254
-0.026823984 0.012027002 0.0083310176
0.026821285 0.012446945 0.0086698476
0.028010337 0.013495886 0.0075681517
-0.02851397 0.016791485 0.0074094273
0.028302968 0.016449343 0.0074486448
-0.028505411 0.019364929 0.007372749
0.028326919 0.019475454 0.0076333717
-0.028452368 0.022329561 0.0075731515
0.028331812 0.022507831 0.0075206435
-0.027789731 0.025258059 0.0075823991
-0.02670172 0.026776725 0.0071385349
-0.012860258 0.026488882 0.0084966561
-0.010504059 0.026125079 0.0080992477
-0.0087041175 0.026727999 0.0084598856
0.0086941337 0.026472552 0.0084059862
0.010459783 0.026385646 0.0079389615
0.012663297 0.026725752 0.0087010926
0.026581032 0.026714405 0.0079892715
0.027676774 0.025256706 0.0075147892
-0.025271505 0.027735328 0.0075052665
-0.022539513 0.028412683 0.0074757803
-0.019490475 0.028443974 0.0073940158
-0.016642079 0.028426126 0.0076642809
-0.013721966 0.027841389 0.007290761
-0.010313486 0.027568882 0.0066325353
-0.0074468325 0.027959302 0.0076286914
-0.0044790586 0.028419368 0.0075449315
-0.0012346427 0.028415626 0.0075753103
0.0017557354 0.028401839 0.0077633518
0.0044540246 0.028376624 0.0075917277
0.0073504145 0.027899463 0.0075469455
0.010592324 0.02771862 0.0065805549
0.013457011 0.027857644 0.0074854693
0.01656072 0.028387286 0.0075138411
0.019694334 0.028393803 0.0075407801
0.022752076 0.028301729 0.0073654014
0.025149783 0.027663771 0.0074209254
-0.025220573 -0.027593698 0.010724294
-0.022396222 -0.02824025 0.010590554
-0.019517787 -0.028231652 0.010527642
-0.016652431 -0.028216613 0.010723892
-0.014196713 -0.027542304 0.010437131
-0.0068441578 -0.027795419 0.010184541
-0.0046927477 -0.028184393 0.010553712
-0.0015491345 -0.028191879 0.010406725
0.0013418918 -0.028180001 0.01069259
0.0043158606 -0.028162764 0.010531337
0.0069605336 -0.027626993 0.010596588
0.01418497 -0.02751885 0.010590001
0.016355021 -0.028130608 0.01018382
0.019514369 -0.028136205 0.010665827
0.022356953 -0.028120331 0.010535779
0.025223782 -0.027513053 0.010501071
-0.027670706 -0.025281563 0.01071103
-0.026655765 -0.026647909 0.010256043
-0.012813425 -0.026195062 0.010736767
-0.01040613 -0.025327494 0.010324012
-0.0083517069 -0.026437731 0.010685048
0.0085098017 -0.0262655 0.010407251
0.010514281 -0.025142273 0.010609245
0.012817643 -0.026221609 0.010608111
0.026473142 -0.026644863 0.010871363
0.027698725 -0.024989955 0.01050518
-0.028336756 -0.022606991 0.010469981
0.028249502 -0.022561768 0.01047542
-0.028531283 -0.019619154 0.010517433
0.028279774 -0.019629842 0.010352449
-0.02851361 -0.016687302 0.010644334
0.028216895 -0.016505141 0.010546758
-0.02778233 -0.014277805 0.010243323
-0.026294932 -0.012833448 0.010339948
0.025846619 -0.012812298 0.010728766
0.027494675 -0.01441794 0.010420281
-0.025211591 -0.010613138 0.010573149
0.025194412 -0.010618203 0.010274324
-0.027825991 -0.0069216727 0.010449415
-0.02636064 -0.0084458245 0.010511171
0.026402423 -0.0084464308 0.010889897
0.027736424 -0.0070777554 0.01043715
-0.028528694 -0.0044070659 0.010546554
0.028251361 -0.0045210067 0.010393997
-0.028538728 -0.0014935426 0.010640815
0.02825696 -0.0015010085 0.01070271
-0.028531043 0.0013388963 0.010614851
0.028255429 0.0014920834 0.010476631
-0.02850336 0.0044778162 0.010362363
0.028236166 0.0044839941 0.010492173
-0.027749589 0.0069648814 0.01046515
-0.026211224 0.0084262863 0.010692395
0.026223883 0.0082012126 0.010408299
0.027618088 0.0067826663 0.010522103
-0.025067315 0.01065379 0.010653359
0.02525047 0.01078437 0.010576806
-0.027712615 0.014267056 0.010318198
-0.02622157 0.012768183 0.0105691
0.026388284 0.012784298 0.010448088
0.027726814 0.014106994 0.010398793
-0.028471373 0.016481668 0.010337846
0.028256271 0.016362039 0.010437815
-0.02848831 0.019612655 0.010479231
0.02831029 0.019784579 0.010600157
-0.028440746 0.022748778 0.010530848
0.028328681 0.02248749 0.010516213
-0.027710063 0.025477966 0.010653352
-0.026741136 0.026823118 0.010810718
-0.013009445 0.026204394 0.010452485
-0.010211661 0.02553482 0.010692202
-0.0084619075 0.026488023 0.010459699
0.0083086956 0.026124243 0.010487313
0.010491505 0.025144093 0.010419806
0.012798422 0.026343834 0.010631464
0.026602549 0.026615206 0.010634645
0.027718415 0.025100883 0.010497985
-0.025397569 0.027752478 0.010538122
-0.022580309 0.028485246 0.010570461
-0.019566197 0.028487641 0.010569994
-0.0162833 0.028374368 0.01055782
-0.014252493 0.027515009 0.010516548
-0.0070448569 0.027818579 0.010576815
-0.0046736826 0.028424783 0.010258975
-0.0015042521 0.028422957 0.010476319
0.0016144967 0.028420178 0.010717827
0.0044243233 0.028387865 0.010600587
0.0068635009 0.027619561 0.010425881
0.014175473 0.027727317 0.010128688
0.016530685 0.028406329 0.010616223
0.019335195 0.0284173 0.010493241
0.022301085 0.028380606 0.010390721
0.025007172 0.0277142 0.010532109
-0.025199542 -0.027588259 0.013226095
-0.022562863 -0.028203089 0.013405819
-0.019514395 -0.02822 0.013634715
-0.016481468 -0.028200313 0.013517527
-0.013961614 -0.027755287 0.013455092
-0.010520268 -0.027463019 0.014463411
-0.0075223516 -0.027781341 0.013478698
-0.0042024502 -0.02817734 0.013384134
-0.0016742203 -0.028170411 0.013334543
0.0014282846 -0.028158439 0.013358722
0.0043622381 -0.028146306 0.013576165
0.007568398 -0.027734278 0.013464909
0.010299321 -0.027453199 0.014436265
0.013529559 -0.027669063 0.013662466
0.016392719 -0.02815081 0.013565765
0.019482944 -0.028138846 0.013370759
0.022357294 -0.028133053 0.013689747
0.024900097 -0.027643373 0.013651031
-0.027699731 -0.025177781 0.013386677
-0.026616817 -0.026678218 0.013834348
-0.012639008 -0.026486622 0.01266177
-0.010546151 -0.026066754 0.013005327
-0.0086015332 -0.026698768 0.012766732
0.0086299842 -0.026521763 0.012647015
0.010648068 -0.026085099 0.012985534
0.012614486 -0.026596216 0.012741159
0.026565086 -0.026503626 0.013421464
0.027523279 -0.025219347 0.013524611
-0.028338507 -0.022616528 0.01338147
0.028233524 -0.022480341 0.013563914
-0.028534994 -0.019635173 0.01338734
0.028245464 -0.01925615 0.013518808
-0.028496783 -0.016349139 0.013446739
0.028233817 -0.016681969 0.013677073
-0.02807058 -0.013484866 0.0138731
-0.026472157 -0.012637384 0.012427769
0.026553525 -0.012565299 0.012727709
0.027730281 -0.013398163 0.013725324
-0.027586259 -0.010114923 0.014212492
-0.026074447 -0.01050523 0.012768393
0.026083495 -0.010339805 0.012659073
0.02758 -0.01059537 0.014263275
-0.028068926 -0.0074770106 0.013627782
-0.026513824 -0.0085212784 0.01227437
0.026713187 -0.0086124502 0.012432999
0.027987424 -0.0074566221 0.013581685
-0.028534848 -0.0041036797 0.013381657
0.028236873 -0.0045938948 0.013374305
-0.028538007 -0.0014368015 0.013601654
0.028237782 -0.0014819039 0.013581431
-0.028519589 0.001439872 0.013432404
0.028221363 0.001385192 0.013695489
-0.028504949 0.0045829448 0.013542859
0.028204629 0.0046767546 0.013931169
-0.027956754 0.0074625392 0.013474762
-0.026412079 0.0086685279 0.012379736
0.026609456 0.0082913917 0.012462677
0.027760364 0.0075694155 0.013582894
-0.027599661 0.010420794 0.014320779
-0.026213758 0.010501995 0.013013781
0.026200544 0.010687013 0.012815518
0.02766175 0.010727841 0.014324558
-0.028004274 0.013772661 0.013674985
-0.026470514 0.012578116 0.012589658
0.026745027 0.01254457 0.012513219
0.027894871 0.013640237 0.013558288
-0.028461711 0.016542792 0.013550062
0.02824576 0.016479751 0.013491377
-0.028463136 0.019615905 0.0133757
0.028273223 0.019460587 0.013486887
-0.028433122 0.022548065 0.013539931
0.028305655 0.022430496 0.0132789
-0.027631281 0.025646985 0.01350689
-0.026788995 0.026818614 0.01313415
-0.012769358 0.026701145 0.012189574
-0.010540787 0.02639503 0.012491063
-0.0089156544 0.026655182 0.012086324
0.0086214375 0.026478181 0.012211782
0.010310216 0.026316596 0.012705378
0.012813807 0.026902005 0.012204529
0.02665399 0.026540399 0.013812548
0.027632138 0.025217742 0.013594361
-0.02531619 0.027829703 0.013469946
-0.022469573 0.028461309 0.013693064
-0.019618526 0.028469985 0.013377412
-0.016605504 0.028442279 0.013592053
-0.013508288 0.027949665 0.013390256
-0.010446913 0.027838014 0.014105501
-0.0074910885 0.028116571 0.013320101
-0.0044642915 0.028405046 0.013496638
-0.0015149186 0.028377064 0.013738403
0.0014327248 0.02837475 0.013509801
0.0046227402 0.02837006 0.013580867
0.0074875979 0.028006554 0.013745033
0.010273366 0.027723685 0.01415141
0.013428861 0.027974442 0.013572467
0.016373347 0.028388705 0.013261755
0.019354425 0.028368633 0.013995277
0.022418274 0.028331354 0.013428352
0.025144445 0.027592719 0.013420727
-0.025039587 -0.027669255 0.016608646
-0.022552261 -0.028206725 0.016640669
-0.019475054 -0.02819992 0.016502688
-0.016638419 -0.028177248 0.016262576
-0.013451963 -0.028173994 0.016368328
-0.010390084 -0.028138429 0.016447145
-0.0075098695 -0.028177503 0.016317744
-0.0047382964 -0.028164355 0.016444368
-0.0014621265 -0.028153684 0.01662977
0.0014798173 -0.028152546 0.016521458
0.0047692456 -0.02816496 0.016426107
0.0075282399 -0.028172554 0.016655276
0.010336775 -0.028129017 0.016631218
0.013407559 -0.028172689 0.016619904
0.016620707 -0.028160244 0.016443621
0.019532498 -0.028160231 0.016433598
0.022682199 -0.028134441 0.016603094
0.024962965 -0.027632223 0.016628517
-0.027683144 -0.025252955 0.016412342
-0.02671575 -0.026582289 0.016420931
0.026516283 -0.026544461 0.016752006
0.02763168 -0.024979329 0.016565008
-0.028359057 -0.022438502 0.016391363
0.02817603 -0.02274554 0.016478973
-0.028510686 -0.019413199 0.016346889
0.028225785 -0.019314943 0.016554495
-0.028503552 -0.016652437 0.016706301
0.028237402 -0.016670095 0.016462423
-0.028478391 -0.013362387 0.016620327
0.028230837 -0.013518689 0.016674347
-0.028422626 -0.010486248 0.01629914
0.028202677 -0.010565809 0.016592268
-0.028477512 -0.007448581 0.016484536
0.028212389 -0.0074298875 0.016450424
-0.028507868 -0.0044660335 0.016514134
0.028200602 -0.0047186324 0.016411696
-0.028511297 -0.0016401525 0.016511794
0.028216055 -0.0015804145 0.016531583
-0.028485499 0.0013882428 0.016345777
0.028192649 0.0017620779 0.016548056
-0.028511105 0.0045775445 0.016640171
0.028192606 0.0047614411 0.016651718
-0.028479513 0.0075064781 0.016408976
0.028208088 0.0073858001 0.016519077
-0.028426431 0.010528357 0.016494352
0.0281961 0.01047288 0.016531112
-0.028433386 0.013420858 0.016387153
0.028224103 0.013579695 0.016627137
-0.0284358 0.016459208 0.016388375
0.028234594 0.01646948 0.016441686
-0.028430395 0.019386735 0.016435953
0.028258068 0.019596601 0.0164421
-0.028405637 0.022520848 0.016520996
0.028259018 0.022460356 0.016352214
-0.027762705 0.025368152 0.016590763
-0.026812123 0.026761329 0.016836023
0.026627023 0.026542773 0.016578205
0.027636716 0.025167791 0.016266767
-0.025400996 0.027757596 0.016627466
-0.02256907 0.028391719 0.016679192
-0.019340049 0.028440373 0.016452702
-0.016477749 0.028433098 0.016413577
-0.013310883 0.028419094 0.016605435
-0.010686713 0.028395161 0.016356785
-0.0075854948 0.028401684 0.016358035
-0.0043358924 0.028388554 0.016260842
-0.0016584857 0.028379818 0.016467081
0.0014342858 0.02835953 0.016363889
0.0045849159 0.028353689 0.016291834
0.00753569 0.028339019 0.016559897
0.010508651 0.028308347 0.016321657
0.013697407 0.028341927 0.016352536
0.016597753 0.028342647 0.016394606
0.01955381 0.028349116 0.016642136
0.022397416 0.028281581 0.016410824
0.025100885 0.027635142 0.016321745
-0.024949962 -0.027708907 0.019582629
-0.022359846 -0.028228905 0.019599471
-0.019551521 -0.028199008 0.019408042
-0.016400067 -0.028175814 0.019482007
-0.013345615 -0.028175812 0.019309863
-0.010515463 -0.028182574 0.019589003
-0.0074364254 -0.028179312 0.019578461
-0.0043291873 -0.028167402 0.019437369
-0.0014936909 -0.028166326 0.019520113
0.0013617952 -0.028178522 0.019472359
0.0046837227 -0.028173273 0.019382039
0.0073106727 -0.028181087 0.019159108
0.010671362 -0.02818465 0.019385973
0.013295032 -0.028175803 0.019517776
0.016554043 -0.028142275 0.019569781
0.019540992 -0.028140498 0.019489327
0.022420321 -0.028163914 0.019635333
0.024934288 -0.027619204 0.01967168
-0.027658563 -0.025300173 0.019612772
-0.026572432 -0.026701193 0.019485459
0.026551122 -0.026463442 0.019817997
0.027543915 -0.025068911 0.019512683
-0.028459461 -0.022393659 0.019448806
0.028165624 -0.02251271 0.019558033
-0.028490132 -0.019577149 0.019562414
0.028209699 -0.019457014 0.019618409
-0.028490778 -0.016609928 0.019557226
0.028210733 -0.016438389 0.019484269
-0.028484704 -0.013655881 0.019652437
0.02821224 -0.01344274 0.019552831
-0.028475329 -0.010618154 0.019553252
0.028199619 -0.010324224 0.019717185
-0.028456958 -0.0075701145 0.019698065
0.028192066 -0.0075888322 0.019463029
-0.028448263 -0.0045670127 0.019564962
0.028175723 -0.0045951325 0.019548506
-0.02842945 -0.0016373796 0.019443672
0.028228289 -0.0013786359 0.019427668
-0.028434576 0.0016398585 0.019450217
0.028185358 0.0015086894 0.01948975
-0.02846748 0.00443384 0.019620236
0.028160378 0.0045927633 0.0197032
-0.028454993 0.0075833504 0.019498771
0.028175568 0.0074306913 0.019428704
-0.028430901 0.010668246 0.019565674
0.028189246 0.010482326 0.019493589
-0.028405208 0.013501582 0.0197531
0.028197445 0.013446865 0.019474579
-0.028386662 0.016807711 0.019436542
0.028197251 0.016595734 0.019674731
-0.028404787 0.019175453 0.019423433
0.028218739 0.019541182 0.019375002
-0.028394876 0.02250769 0.019228743
0.028214861 0.022400655 0.019458467
-0.027776983 0.025337888 0.019438757
-0.026642529 0.026893552 0.019515196
0.026673652 0.026543375 0.019518338
0.027728239 0.025062948 0.019595852
-0.025362069 0.027731456 0.019544456
-0.022380559 0.028338525 0.019349474
-0.01927031 0.028446402 0.019456672
-0.016590375 0.028445683 0.019603308
-0.013481037 0.028439134 0.019371469
-0.010641126 0.02842428 0.019386312
-0.0074736997 0.028409082 0.019392082
-0.0043105851 0.028395686 0.019412801
-0.001686988 0.028401002 0.019474663
0.001441905 0.028386423 0.019433001
0.0045865686 0.028363751 0.019502806
0.007443795 0.028350988 0.019497067
0.010394474 0.028347163 0.019463388
0.013553094 0.028346954 0.019404579
0.016513497 0.028338566 0.019704392
0.019436395 0.028341521 0.019504927
0.022566255 0.028205324 0.019419448
0.02500784 0.027691167 0.019578531
-0.025145629 -0.027620887 0.022405438
-0.022508731 -0.028239626 0.022573715
-0.019395182 -0.028223313 0.022558261
-0.016504157 -0.028165806 0.022540664
-0.013529615 -0.02818243 0.022405211
-0.010610316 -0.028186584 0.022235831
-0.0077549745 -0.028184362 0.022422332
-0.0042308499 -0.028155765 0.022430271
-0.0015304195 -0.028148014 0.022450732
0.0014758573 -0.028129861 0.022548718
0.0045367698 -0.028124981 0.022282708
0.0074755796 -0.028141981 0.022443537
0.010539441 -0.028136015 0.022426838
0.013492483 -0.028125329 0.022518164
0.016573697 -0.02810641 0.022516813
0.019734783 -0.028079588 0.022544306
0.02268748 -0.028084777 0.022699812
0.025060847 -0.027584691 0.022417713
-0.027686896 -0.025211109 0.022608086
-0.026586309 -0.026676634 0.022802051
0.026475521 -0.026593598 0.022051902
0.027567068 -0.024987116 0.022294328
-0.028377723 -0.022354919 0.022503344
0.028113438 -0.022357371 0.022551348
-0.028410468 -0.019380692 0.02249513
0.028103622 -0.019310828 0.022702284
-0.028420309 -0.016467968 0.022590516
0.028136851 -0.016531294 0.022519043
-0.028473394 -0.01361831 0.022427961
0.028172472 -0.013435406 0.022476237
-0.028464522 -0.010357486 0.022632727
0.028178399 -0.010543297 0.022315953
-0.028456938 -0.0073440345 0.022318549
0.028149659 -0.0074881339 0.022713827
-0.028439354 -0.0045421724 0.022364737
0.028121635 -0.0043688747 0.022447875
-0.028429102 -0.0014278732 0.022500174
0.028120063 -0.0014709863 0.022630347
-0.028440563 0.0017132789 0.022481099
0.028106788 0.0013521261 0.022546355
-0.028428249 0.0044414876 0.022390114
0.028089533 0.0042584506 0.022474151
-0.028426984 0.0074747805 0.022507206
0.02812559 0.0075634094 0.022443121
-0.028422214 0.010335138 0.022632794
0.028168377 0.010485561 0.022050561
-0.028390851 0.013253019 0.022254379
0.028168922 0.013637261 0.022445444
-0.028449755 0.016312812 0.022531519
0.028143242 0.016478773 0.022315282
-0.028516505 0.019626591 0.0227546
0.028127827 0.019243285 0.022508381
-0.028450852 0.022484465 0.022729507
0.028155716 0.02256093 0.022379037
-0.027874542 0.025356727 0.02254015
-0.026807779 0.026881928 0.022084316
0.026518218 0.026687905 0.022018952
0.027680898 0.025138615 0.022448516
-0.025251606 0.027844787 0.022608321
-0.022459423 0.028332533 0.022442563
-0.019658422 0.028379602 0.022485277
-0.016548511 0.028369054 0.022366086
-0.013583573 0.028386643 0.022314101
-0.010636812 0.028366081 0.022523543
-0.0075422362 0.028339138 0.022583079
-0.0042170393 0.028291672 0.022603374
-0.0013721546 0.028303614 0.022341417
0.0013367081 0.028250538 0.022824047
0.0044389381 0.028240714 0.022589708
0.0074646035 0.028219854 0.022910042
0.01061222 0.028260959 0.022619732
0.013455926 0.028253641 0.022685191
0.016712962 0.028257962 0.022676891
0.019573012 0.028252667 0.022553945
0.022380056 0.02819816 0.022621799
0.025102902 0.027626909 0.022671625
-0.024828907 -0.027478255 0.025118275
-0.022606382 -0.027578142 0.025584528
-0.019260397 -0.027668217 0.025205156
-0.016577194 -0.027657302 0.025146972
-0.01357624 -0.027609162 0.025245365
-0.0104625 -0.027629353 0.025241608
-0.0073544504 -0.027692888 0.025038136
-0.0043287231 -0.027661236 0.02508416
-0.0016075108 -0.027574457 0.025306508
0.0014433068 -0.027572338 0.025215711
0.0045049232 -0.027590325 0.025120446
0.0072910059 -0.027557058 0.025127171
0.010419783 -0.027682772 0.02488048
0.01359121 -0.027612954 0.025080737
0.01644549 -0.027595427 0.025142504
0.019457152 -0.027608184 0.025222415
0.02246324 -0.02752715 0.025422955
0.025094144 -0.027352337 0.02497049
-0.027581509 -0.02502919 0.024906289
-0.025900468 -0.026413629 0.025973644
-0.0221476 -0.026816383 0.026658859
-0.019595899 -0.026598742 0.026748961
-0.016460331 -0.026636511 0.026695188
-0.0133727 -0.02661781 0.026695453
-0.010431714 -0.026694626 0.026639944
-0.0073578493 -0.026710618 0.026569333
-0.0044958587 -0.026670352 0.026619453
-0.0015108571 -0.02673584 0.026616191
0.0015586411 -0.02658291 0.026635937
0.0049223052 -0.026567932 0.026656747
0.0074338345 -0.026622143 0.026527144
0.010717358 -0.02660054 0.02657794
0.013138676 -0.026560672 0.02667091
0.016479908 -0.026728705 0.026542494
0.019676924 -0.026642684 0.026678244
0.022852207 -0.026637299 0.026747499
0.026060231 -0.02608894 0.026146125
0.027371427 -0.025019869 0.025262356
-0.027766993 -0.022539075 0.025405137
-0.026897512 -0.022398822 0.026804021
0.026764071 -0.022260441 0.026839584
0.027630368 -0.022725606 0.025470728
-0.02766115 -0.019734688 0.025594896
-0.026780419 -0.019540088 0.026851118
0.02678561 -0.019469447 0.02669487
0.027701637 -0.019465694 0.025203478
-0.027756147 -0.016465344 0.025304087
-0.026734531 -0.016441872 0.026851112
0.026717907 -0.016694466 0.026641855
0.027687946 -0.016401602 0.025190031
-0.027722238 -0.013395106 0.025533788
-0.026870275 -0.01349397 0.026820341
-0.012257752 -0.012625131 0.026476825
-0.010702423 -0.012951775 0.026273873
-0.0084067089 -0.012404554 0.026717067
0.0087881647 -0.012479372 0.026570654
0.010483492 -0.012972764 0.02630594
0.012425128 -0.012644302 0.026521372
0.026592409 -0.013306113 0.026747778
0.027658841 -0.013441464 0.025232987
-0.027806953 -0.010418624 0.025345108
-0.026892798 -0.010297467 0.026816063
-0.012740072 -0.010948998 0.026357733
-0.010553383 -0.010558382 0.025604535
-0.0082522202 -0.010535973 0.026371242
0.0086413641 -0.010743814 0.026473774
0.010636983 -0.010382498 0.025906652
0.013042958 -0.010674644 0.026370367
0.026583083 -0.01044011 0.026685277
0.027560104 -0.010479019 0.025348837
-0.027758798 -0.0073371665 0.025438325
-0.026860584 -0.0077273934 0.026836943
-0.012263577 -0.0088029141 0.02680574
-0.010523862 -0.0084237754 0.026607944
-0.0087024467 -0.0086868573 0.026689887
0.01064763 -0.0084569361 0.026554318
0.012527943 -0.0084197251 0.026770918
0.026670825 -0.0076449318 0.02657439
0.0275399 -0.0074889655 0.025280876
-0.027901173 -0.0045730225 0.025245447
-0.026882315 -0.004154955 0.026852829
0.02662988 -0.0048383586 0.026682414
0.02761049 -0.004489393 0.025206637
-0.027756559 -0.0013694239 0.025381742
-0.026761023 -0.001151573 0.026755361
0.026709234 -0.002023746 0.026701378
0.027615976 -0.0016288895 0.025290651
-0.027775785 0.001548428 0.025336411
-0.026777551 0.0014761039 0.02674702
0.026697807 0.0018675704 0.02662209
0.027593683 0.0014476421 0.025167698
-0.027784916 0.0046114777 0.025436446
-0.026808605 0.0036336528 0.026842883
0.026576828 0.0048890435 0.026676986
0.027519338 0.0043483218 0.025315126
-0.02788027 0.0075008501 0.025230443
-0.02689054 0.0074327681 0.02682022
-0.012247431 0.008532526 0.026694378
-0.010334913 0.0083394097 0.026356056
-0.0085323565 0.0089738034 0.026505917
0.0087773874 0.0085139368 0.026896762
0.010563179 0.0082752891 0.02646427
0.012361717 0.008451947 0.02661857
0.026569184 0.0074191303 0.026642118
0.027762583 0.0072585754 0.024751091
-0.02785833 0.010380349 0.025412014
-0.026917126 0.01049662 0.026938824
-0.012544381 0.010744638 0.026450669
-0.010525083 0.010417852 0.025770899
-0.0081939418 0.010488721 0.026459996
0.0084551312 0.010585157 0.026680438
0.010357089 0.010503097 0.025923127
0.012962861 0.010402241 0.026337508
0.026577249 0.010072986 0.026647454
0.027620798 0.010512606 0.025175394
-0.027911739 0.013638266 0.025472403
-0.02699743 0.013391356 0.026946949
-0.012172296 0.012600017 0.026839621
-0.010472766 0.012811444 0.026429858
-0.0082679968 0.012347691 0.026777824
0.0087538501 0.012192744 0.026808584
0.010885988 0.012690329 0.026384322
0.012731639 0.012444798 0.026622133
0.026648838 0.013226106 0.026642768
0.027634364 0.013296523 0.025183382
-0.027880006 0.016640617 0.025482383
0.026680741 0.017065004 0.026608931
0.027627666 0.016405676 0.025213528
-0.027876288 0.019303542 0.025545031
-0.026989646 0.018858731 0.026930839
0.026612848 0.019417705 0.026702905
0.027639134 0.019544426 0.025201295
-0.027831333 0.022479733 0.02566205
0.026569534 0.0228542 0.026652444
0.027566779 0.022489382 0.025295328
-0.027548125 0.025285307 0.025384091
-0.02606209 0.026364222 0.026208751
-0.022247111 0.0265876 0.026648978
-0.019406302 0.026621634 0.026591163
-0.016427465 0.026595186 0.026613599
-0.013492053 0.026777294 0.02654379
-0.010341985 0.02668494 0.026676403
-0.0074584624 0.026668364 0.02657727
-0.0045006848 0.026521638 0.026643932
-0.001580651 0.02655617 0.026668418
0.0015840769 0.026684301 0.026501788
0.004419466 0.026503704 0.026605761
0.0077195098 0.026564009 0.026522595
0.010290658 0.026566207 0.026559886
0.013279776 0.026625263 0.026569901
0.016736392 0.02658448 0.026657382
0.019569747 0.026630552 0.02673148
0.02257414 0.026744885 0.02670856
0.02610068 0.026099034 0.025826786
0.027452216 0.024820112 0.024863347
-0.02542462 0.027421642 0.024942763
-0.022455838 0.027699405 0.025158709
-0.019625703 0.027712395 0.025041305
-0.016326163 0.027674088 0.025109384
-0.013641423 0.027614698 0.025244454
-0.010428676 0.027689591 0.025142187
-0.0076028863 0.027714688 0.02506795
-0.004497264 0.0274946 0.025373584
-0.0015458479 0.027651712 0.025152043
0.0015616248 0.027711947 0.024944952
0.0046985522 0.027588395 0.025089791
0.0075694593 0.027569788 0.025119677
0.010494642 0.027532063 0.025176954
0.013335671 0.027580408 0.025135823
0.016580224 0.027560944 0.025236618
0.019741211 0.027753722 0.025057377
0.022450533 0.027757144 0.025087725
0.025053922 0.027422454 0.025132842
-0.025313497 -0.025033744 0.027552169
-0.022651298 -0.025268007 0.027793465
-0.019764302 -0.02518242 0.027749253
-0.016408626 -0.025215806 0.027750442
-0.013667329 -0.025248311 0.02774236
-0.010246383 -0.025439581 0.027613593
-0.0076456759 -0.025215682 0.027724229
-0.0045811455 -0.025387418 0.027621485
-0.0013813399 -0.025434885 0.027574316
0.0016266917 -0.025065878 0.027657526
0.0045466875 -0.025028722 0.027706254
0.0074056317 -0.02501996 0.027673701
0.010315115 -0.025096884 0.027646728
0.013525651 -0.025116414 0.027669137
0.016566401 -0.025356004 0.027589874
0.01944939 -0.025214182 0.027682891
0.022272386 -0.025204699 0.027684579
0.025268853 -0.025067082 0.027429901
-0.025320588 -0.02265959 0.027896032
-0.022461422 -0.02254081 0.028350212
-0.019700708 -0.022294635 0.028304908
-0.016669737 -0.02259952 0.028316693
-0.013652876 -0.022701448 0.028349727
-0.010434827 -0.02247666 0.028359646
-0.007623347 -0.022521187 0.028356651
-0.00442289 -0.022424893 0.028354725
-0.0015157827 -0.022485631 0.028307751
0.0015984023 -0.022438979 0.028266413
0.0045578112 -0.022599252 0.028281618
0.0074865581 -0.022547558 0.028319707
0.010419024 -0.022681674 0.028337587
0.013397185 -0.022590995 0.028328354
0.016344616 -0.022585327 0.028321765
0.019563597 -0.02255973 0.028332958
0.022383844 -0.022474671 0.028315844
0.025603559 -0.022208821 0.027606243
-0.025349712 -0.019344166 0.02778849
-0.022727227 -0.019461323 0.028287617
-0.019412834 -0.019543225 0.028293254
-0.016271751 -0.019588575 0.028308634
-0.01338096 -0.019425509 0.028325556
-0.010343507 -0.019395284 0.028341595
-0.0074933995 -0.019570664 0.028364517
-0.0046375468 -0.019502832 0.028350342
-0.0018262863 -0.019333549 0.028345879
0.0014149219 -0.019544937 0.028340131
0.0042245779 -0.019298038 0.028362263
0.0075954222 -0.019485656 0.028414859
0.01039707 -0.019362973 0.028439734
0.01358014 -0.019582214 0.028409258
0.0165284 -0.019555539 0.028389994
0.019575341 -0.019498378 0.028376468
0.022639299 -0.019090973 0.028341752
0.025345599 -0.019659391 0.027717317
-0.025433391 -0.016459711 0.027713843
-0.022399055 -0.016620893 0.028281732
-0.019690732 -0.016256481 0.028290825
-0.016604654 -0.016402276 0.02830644
-0.01332912 -0.016216274 0.028326565
-0.010787093 -0.016576651 0.028304875
-0.0075747119 -0.016391372 0.02836467
-0.0044120871 -0.016670195 0.028357984
-0.001417851 -0.016545903 0.028379381
0.0015428342 -0.016469801 0.028379969
0.0044421526 -0.016450007 0.02837332
0.0072985138 -0.016647279 0.028386921
0.010327809 -0.016537754 0.028376341
0.013516601 -0.016624561 0.028408045
0.016531039 -0.016560605 0.028396467
0.019393086 -0.016524788 0.02838641
0.022535041 -0.016233828 0.028368749
0.025069822 -0.016528331 0.02774472
-0.025252927 -0.013306071 0.027882719
-0.022642819 -0.013371943 0.028282614
-0.01943578 -0.013459124 0.028296495
-0.016527191 -0.013612776 0.028314047
-0.013490812 -0.013616221 0.027909081
-0.010341669 -0.014286475 0.027645919
-0.0075772726 -0.013616649 0.027919639
-0.0045810095 -0.013344126 0.02834958
-0.0015415251 -0.013577475 0.028373612
0.0015920453 -0.013513699 0.028366599
0.0044877823 -0.013308426 0.028359607
0.0072748503 -0.013665475 0.028028451
0.010407955 -0.01432022 0.027664205
0.013777731 -0.013630146 0.028002635
0.016322678 -0.013398747 0.028381675
0.019352404 -0.013442765 0.028391674
0.022527535 -0.013654192 0.028351169
0.025061 -0.013436897 0.027729906
-0.025506219 -0.010567577 0.027794208
-0.022699576 -0.010780023 0.028293541
-0.019490605 -0.010330359 0.028308943
-0.016645109 -0.010482414 0.028317267
-0.014096526 -0.010657206 0.027692927
-0.0069248644 -0.010351465 0.027624235
-0.0047605033 -0.010644552 0.028331481
-0.0014456176 -0.010486572 0.028371664
0.0012630875 -0.010356529 0.028357126
0.0044416497 -0.010671375 0.028355198
0.0071585206 -0.010392379 0.02775792
0.014202789 -0.010455058 0.027534993
0.016447118 -0.010536345 0.028348245
0.019572407 -0.010438443 0.028387789
0.022473162 -0.010324512 0.028349791
0.025082396 -0.010426736 0.027671689
-0.025364058 -0.0074719456 0.027869891
-0.02254371 -0.0075545157 0.02833
-0.019607261 -0.0074694091 0.028332872
-0.016492639 -0.0075686867 0.028324449
-0.013616751 -0.007582624 0.028057158
-0.010364445 -0.0071548745 0.027762584
-0.0073704002 -0.007424403 0.028082699
-0.0044639306 -0.0074822525 0.028380297
-0.0014289089 -0.0075206296 0.028379345
0.0014176124 -0.0075174398 0.028366262
0.0044929618 -0.0076327887 0.028364683
0.0075472738 -0.0073853368 0.028146891
0.010570003 -0.0069968556 0.027849725
0.01340175 -0.0074427016 0.027880952
0.01664334 -0.0076007494 0.028379342
0.01931303 -0.0074387523 0.028367845
0.022450646 -0.0073652165 0.028304715
0.02525227 -0.0073591899 0.027578305
-0.02544182 -0.0045027216 0.027840963
-0.022499628 -0.0044941194 0.0283527
-0.019500948 -0.0045563909 0.028329074
-0.016614301 -0.0045428108 0.028317291
-0.013284386 -0.0045381091 0.02833995
-0.010731456 -0.0042993668 0.028359368
-0.0077061206 -0.0043149721 0.028376685
-0.0043129688 -0.0042660278 0.028381297
