# .PCD v0.7 - Point Cloud Data file format
VERSION 0.7
FIELDS x y z
SIZE 4 4 4
TYPE F F F
COUNT 1 1 1
WIDTH 1262
HEIGHT 1
VIEWPOINT 0 0 0 1 0 0 0
POINTS 1262
DATA ascii
-0.0013187126 0.0075474046 -0.025400007
0.0016780406 0.0074549643 -0.025400007
0.0044935918 0.0074967989 -0.025400009
0.007551244 0.0077624139 -0.025400007
0.010394817 0.007469919 -0.025400016
0.013723572 0.007574202 -0.025399996
0.016575947 0.0073646461 -0.025400013
0.019403704 0.0074152299 -0.025400005
0.02244986 0.0077991956 -0.025400011
0.024976542 0.0076345634 -0.025081845
-0.025008781 0.010531099 -0.025044663
-0.022492209 0.010795534 -0.025400003
-0.019639302 0.010638855 -0.025400007
-0.016600845 0.010613105 -0.025400002
-0.013650078 0.010683447 -0.025400015
-0.010484249 0.010232287 -0.025400009
-0.0076450272 0.010527612 -0.025400015
-0.0045626592 0.010330706 -0.025400011
-0.001512542 0.010402825 -0.025400005
0.0014945024 0.01050527 -0.025400005
0.0047656489 0.010456936 -0.025400007
0.0073456243 0.010673658 -0.025400011
0.010551726 0.010564233 -0.025400018
0.013437216 0.010529931 -0.025400016
0.016467575 0.01050291 -0.025400009
0.019548383 0.010438623 -0.025400015
0.022319295 0.010507526 -0.025400013
0.024990242 0.010475389 -0.025140919
-0.024985362 0.013415571 -0.025128787
-0.022304701 0.013660523 -0.025400011
-0.019516394 0.013535596 -0.025400007
-0.016455196 0.013613399 -0.025400015
-0.013019848 0.013142382 -0.025400015
-0.010426595 0.013742892 -0.025400009
-0.0074927765 0.01358198 -0.025400015
-0.0045187245 0.01350729 -0.025400009
-0.0017423874 0.013517606 -0.025400007
0.0014816299 0.013645035 -0.025400002
0.0047918446 0.013387528 -0.025400013
0.0074709523 0.013708598 -0.025400005
0.010586559 0.013429585 -0.025400009
0.013383755 0.013579203 -0.025400005
0.01647326 0.013712449 -0.025400005
0.019458253 0.013698828 -0.025400015
0.022349041 0.013258547 -0.025400013
0.024995137 0.013494895 -0.025061635
-0.024999857 0.016565401 -0.025039319
-0.022411095 0.016548192 -0.025400009
-0.019181537 0.016043721 -0.025400013
-0.016174741 0.016300043 -0.025400013
-0.01338153 0.016365973 -0.025400009
-0.010550862 0.016321175 -0.025400009
-0.0075122425 0.016522229 -0.025400011
-0.0046973089 0.016484695 -0.025400011
-0.0016458426 0.016674673 -0.025400013
0.0015621171 0.016407751 -0.025400009
0.0044986173 0.016375551 -0.025400015
0.0073876614 0.016526364 -0.025400015
0.010436995 0.016397849 -0.025400003
0.013373072 0.016346818 -0.025400013
0.016553815 0.016481688 -0.025400007
0.019688396 0.016387245 -0.025400007
0.022452861 0.0165099 -0.025400011
0.024976935 0.016477045 -0.025102265
-0.02369331 0.01941577 -0.025064012
-0.022071213 0.018935917 -0.025400003
-0.019543083 0.019521859 -0.025400009
-0.016459845 0.019575248 -0.025400002
-0.013436322 0.018778928 -0.025400013
-0.010335196 0.019476365 -0.025400011
-0.007358863 0.019463856 -0.025400013
-0.0044883597 0.019423647 -0.025400009
-0.0014667937 0.019515328 -0.025400009
0.0014216074 0.019416394 -0.025400013
0.0045121862 0.019551823 -0.025400009
0.007525621 0.01933868 -0.025400007
0.010575626 0.01948802 -0.025400005
0.013449764 0.01890008 -0.025400015
0.01628289 0.019430231 -0.025400011
0.019607171 0.019490022 -0.025400009
0.022422679 0.019512938 -0.025400009
0.025008144 0.019528314 -0.025130754
-0.025073057 0.02234648 -0.025050946
-0.022584684 0.022375211 -0.025400015
-0.019337164 0.02250402 -0.025400007
-0.016377216 0.022433514 -0.025400013
-0.013523468 0.022419404 -0.0254
-0.010349001 0.022448801 -0.025400007
-0.0073309336 0.022393651 -0.025400002
-0.0042022844 0.022257078 -0.025400011
-0.0015842287 0.02252805 -0.025400011
0.0016884991 0.022485996 -0.025400013
0.0044798581 0.022411969 -0.025400013
0.0066745873 0.022430589 -0.025391923
0.010337017 0.022457493 -0.025399994
0.012917167 0.021820126 -0.025400015
0.016428551 0.022558777 -0.025400002
0.019518333 0.022602918 -0.025400013
0.022382889 0.02252469 -0.025400007
0.025037993 0.02254466 -0.025142612
-0.024741122 0.02409618 -0.024946112
-0.022690369 0.024986066 -0.025023272
-0.019469403 0.025015038 -0.025041543
-0.016577613 0.025079615 -0.024969071
-0.013557585 0.02508839 -0.025052458
-0.010522046 0.025006015 -0.025053499
-0.0073353797 0.025095213 -0.024936171
-0.0044077956 0.025033787 -0.025083799
-0.0015690601 0.025091015 -0.025041517
0.0015568847 0.024932547 -0.025142526
0.0045841369 0.024924332 -0.025059322
0.0072033037 0.025099413 -0.024976395
0.010593235 0.025023304 -0.025050132
0.013490667 0.025112443 -0.024988286
0.016462853 0.025040099 -0.02490274
0.019341117 0.025118191 -0.025023276
0.022362977 0.024967242 -0.02514109
0.024962161 0.025014186 -0.024785347
-0.025113139 -0.025027752 -0.022421192
-0.022356797 -0.025400015 -0.022538127
-0.019526353 -0.025400009 -0.022344317
-0.016676199 -0.025400003 -0.022522233
-0.013350699 -0.025400007 -0.022354513
-0.010597724 -0.025400009 -0.022331826
-0.0071843462 -0.025348388 -0.022579489
-0.0045717601 -0.024586562 -0.022609936
-0.0011865211 -0.025054269 -0.022578139
0.0015018666 -0.025400015 -0.022387361
0.0045291102 -0.025400013 -0.022516303
0.0072077503 -0.025400009 -0.022398358
0.010428479 -0.025400015 -0.022342598
0.013429858 -0.025400003 -0.022666488
0.016451666 -0.025400016 -0.022621578
0.019393781 -0.025400015 -0.022542743
0.021425202 -0.024676152 -0.022701327
0.02515181 -0.02498246 -0.022583887
-0.025400009 -0.022428272 -0.022571659
0.024717219 -0.022117458 -0.022560017
-0.024284279 -0.019091124 -0.022655802
0.025400013 -0.0195207 -0.022439666
-0.025400011 -0.016357856 -0.022494996
0.025400013 -0.01674775 -0.022551939
-0.025400007 -0.013549631 -0.022685915
0.025400007 -0.013482652 -0.022477772
-0.025400007 -0.010706673 -0.022594057
0.025400003 -0.010375542 -0.022560842
-0.025400007 -0.0073488597 -0.022321796
0.0254 -0.007633592 -0.022762775
-0.025400015 -0.0045065256 -0.022600787
0.025400015 -0.0043676049 -0.022448957
-0.025400002 -0.0016339286 -0.022480359
0.025400009 -0.0015455025 -0.022374248
-0.025400013 0.0017332427 -0.022566566
0.025400009 0.0015364147 -0.022431958
-0.025400016 0.0045340476 -0.022723092
0.024667075 0.0046784305 -0.022688981
-0.025400013 0.0073905336 -0.022424929
0.025400009 0.0074870335 -0.022521416
-0.02535082 0.010375934 -0.022482548
0.025400009 0.010548765 -0.022366697
-0.025339926 0.013059362 -0.022527922
0.025400002 0.013447986 -0.022656597
-0.024383344 0.016835334 -0.022502691
0.025400013 0.016455377 -0.022431722
-0.024465656 0.01892386 -0.022637017
0.025400015 0.019438356 -0.022426849
-0.024762046 0.022005307 -0.02244135
0.025400013 0.022661984 -0.022524983
-0.025096433 0.02401365 -0.022457667
-0.022455826 0.025400011 -0.022438504
-0.019091437 0.024941744 -0.022572702
-0.016620085 0.025400011 -0.022477202
-0.013471119 0.025236968 -0.022788677
-0.010538365 0.025400009 -0.022337861
-0.00741171 0.025400007 -0.022734869
-0.0045682807 0.025400009 -0.02252744
-0.0015314996 0.025400007 -0.022350643
0.0016799343 0.025400007 -0.022526581
0.004768725 0.025400011 -0.022333311
0.0073682819 0.025400013 -0.022713412
0.010545476 0.025400015 -0.022412475
0.013547292 0.025400009 -0.022688452
0.016522584 0.025400015 -0.022452276
0.019698557 0.025400002 -0.022414032
0.022669261 0.025400018 -0.022493409
0.024813946 0.024726734 -0.022439564
-0.025022849 -0.025059072 -0.019650031
-0.02252866 -0.025400009 -0.019483764
-0.019243905 -0.025400003 -0.01943142
-0.016817849 -0.025400005 -0.019484956
-0.013448489 -0.025400007 -0.019519461
-0.010360629 -0.025044302 -0.019636558
-0.0073929294 -0.025400007 -0.019393157
-0.0046101082 -0.025400009 -0.019618029
-0.0014667461 -0.025400013 -0.019448359
0.0015230261 -0.025400007 -0.019451981
0.0044759661 -0.025400007 -0.019669922
0.007285859 -0.025400015 -0.019534966
0.010554221 -0.025400007 -0.019643124
0.01351072 -0.025400015 -0.01944631
0.016076447 -0.024466326 -0.019658187
0.019558426 -0.024311516 -0.019533463
0.022346355 -0.025400009 -0.0196041
0.025040414 -0.024306919 -0.01950739
-0.025400009 -0.02253723 -0.019460065
0.025400009 -0.0224542 -0.019578297
-0.025400009 -0.019534415 -0.019505821
0.024579888 -0.018731574 -0.01941957
-0.025400015 -0.016562559 -0.019599326
0.025399998 -0.016657943 -0.019846378
-0.025400013 -0.013541825 -0.019421466
0.025400013 -0.013359719 -0.019541854
-0.024698257 -0.010243217 -0.019689655
0.025400005 -0.01055827 -0.019389566
-0.025400007 -0.00729942 -0.019468877
0.025400007 -0.0076588676 -0.019493876
-0.025400015 -0.0045271139 -0.019417765
0.025400009 -0.0046103275 -0.019595258
-0.025400002 -0.0016154761 -0.019447427
0.025400005 -0.0013370861 -0.019463761
-0.025400007 0.0013729796 -0.019589553
0.024889423 0.0011190728 -0.019523332
-0.025400007 0.0045279386 -0.019527823
0.025400009 0.0045082234 -0.019330801
-0.024582416 0.0073365392 -0.019427964
0.025400005 0.0076011033 -0.019464478
-0.025400011 0.010335011 -0.019506866
0.024761595 0.010007664 -0.019473901
-0.025400007 0.013471421 -0.01931265
0.0254 0.013550084 -0.0195101
-0.025400009 0.016580828 -0.019450821
0.025400007 0.016521433 -0.019429063
-0.025400009 0.019441839 -0.019470006
0.025400009 0.019422967 -0.01950432
-0.025400015 0.022485506 -0.019563794
0.02442525 0.022200834 -0.019880459
-0.024941528 0.025104249 -0.019644322
-0.022058614 0.024026783 -0.019602699
-0.019513967 0.025400007 -0.01946206
-0.016280204 0.025400003 -0.019731227
-0.013617156 0.025185714 -0.019563431
-0.010378557 0.025400009 -0.019430008
-0.0076215183 0.025400011 -0.019559417
-0.0044558463 0.025400005 -0.019486407
-0.001721091 0.025158023 -0.019601688
0.0015393852 0.025400013 -0.019447889
0.0046970863 0.025400013 -0.019523652
0.0075808321 0.025400007 -0.019522248
0.010638886 0.025400007 -0.019323904
0.013418673 0.025400005 -0.019517444
0.016903965 0.025400007 -0.019439083
0.019765286 0.025400011 -0.019229218
0.022362782 0.025400007 -0.019660257
0.025122954 0.024967501 -0.019339748
-0.024950627 -0.024247373 -0.016513126
-0.022404073 -0.025400009 -0.016389029
-0.019579252 -0.025400007 -0.016578358
-0.016383493 -0.024960849 -0.016749736
-0.013773046 -0.024637822 -0.016623497
-0.01040496 -0.025400007 -0.016621416
-0.0075958516 -0.025400013 -0.016410245
-0.004417439 -0.025400015 -0.016375372
-0.001479617 -0.025400015 -0.016663689
0.0014449003 -0.025400015 -0.016553707
0.0050957799 -0.025393507 -0.016595345
0.0071133948 -0.025303325 -0.016642356
0.0099750543 -0.025048018 -0.016635185
0.013620871 -0.025400009 -0.016659159
0.016472876 -0.025399996 -0.016605983
0.019581573 -0.025400009 -0.016566731
0.02261428 -0.025400015 -0.016392168
0.025128148 -0.024976997 -0.016475579
-0.024598412 -0.021672178 -0.016744861
0.025400003 -0.022809073 -0.016429385
-0.025400015 -0.01950396 -0.016420068
0.025400003 -0.01947722 -0.016392795
-0.025400007 -0.016644869 -0.016501313
0.025400013 -0.016482309 -0.016480753
-0.025349291 -0.013485216 -0.016460892
0.025400003 -0.013887609 -0.016524736
-0.025400002 -0.010343509 -0.016719481
0.025400005 -0.010584104 -0.016416412
-0.025400007 -0.0073645944 -0.01615718
0.025400015 -0.007566866 -0.016457692
-0.025400011 -0.0045434972 -0.01652767
0.025400007 -0.0045673763 -0.016486365
-0.025400007 -0.0014427627 -0.016452678
0.025159916 -0.0016099494 -0.016672751
-0.025400009 0.0016309517 -0.016478717
0.025399998 0.0014283709 -0.01655134
-0.025400007 0.004534727 -0.016499389
0.025400011 0.0043844921 -0.016528422
-0.025400015 0.0074285492 -0.016398693
0.025400013 0.0074971835 -0.016420322
-0.024290327 0.0096939486 -0.01679611
0.0254 0.010414911 -0.016295617
-0.025400013 0.013328511 -0.016469395
0.025400013 0.013451722 -0.01655486
-0.025400013 0.0164853 -0.016554985
0.025400007 0.01663827 -0.016517604
-0.024774451 0.018735236 -0.016691808
0.025400011 0.019680265 -0.016462713
-0.025400009 0.022422237 -0.016541576
0.025400013 0.022648521 -0.016453112
-0.025065944 0.025044916 -0.016600193
-0.022503924 0.025400005 -0.016644815
-0.019467996 0.025400003 -0.016543794
-0.015793907 0.025400009 -0.016356215
-0.013678605 0.025400009 -0.016569458
-0.010506296 0.025400007 -0.016673125
-0.0075382162 0.025399998 -0.016450424
-0.0039522224 0.025400007 -0.016397044
-0.0015187933 0.025400013 -0.016432088
0.0016767535 0.025400015 -0.01670002
0.0040706564 0.025393097 -0.016644938
0.0070997239 0.025392374 -0.016741529
0.010502014 0.025400011 -0.0166154
0.012875714 0.024567222 -0.016720859
0.016380208 0.025400013 -0.01654595
0.01869485 0.024848668 -0.016678043
0.022530207 0.025400005 -0.016520508
0.025101578 0.02505789 -0.016500117
-0.025111565 -0.025044765 -0.013465914
-0.022536842 -0.025400015 -0.013437948
-0.019533079 -0.025400009 -0.013662172
-0.01677472 -0.025400007 -0.013346113
-0.013457422 -0.025400015 -0.013597178
-0.010519691 -0.025400009 -0.013528459
-0.0066055609 -0.024304181 -0.013952516
-0.0046782666 -0.025201028 -0.013627464
-0.0017258668 -0.025400007 -0.013556272
0.0012897751 -0.025400007 -0.013322928
0.0043235011 -0.025400009 -0.013380674
0.0076846671 -0.025400002 -0.013481731
0.010367832 -0.025400009 -0.013640565
0.013013575 -0.02503537 -0.013823471
0.016606048 -0.025003659 -0.01367243
0.019300239 -0.025400007 -0.013017723
0.022428036 -0.025400007 -0.013505732
0.025133509 -0.025016187 -0.013460291
-0.025400007 -0.022358462 -0.013459761
0.025400007 -0.022611532 -0.013271177
-0.025400013 -0.019343011 -0.013476379
0.025400009 -0.019488035 -0.013343953
-0.024611721 -0.016316727 -0.013572318
0.025400002 -0.016118987 -0.013478861
-0.025400015 -0.013566636 -0.013407642
0.025400005 -0.013472465 -0.013468717
-0.025400002 -0.010582754 -0.013421955
0.025400011 -0.010334224 -0.013511984
-0.025400009 -0.0075367359 -0.013399683
0.024750276 -0.0068991305 -0.013507615
-0.025400003 -0.0044304854 -0.013422745
0.025151789 -0.0045319693 -0.013781032
-0.025400011 -0.0014283725 -0.013590611
0.02480283 -0.000942357 -0.013790634
-0.025400011 0.0012673636 -0.013718321
0.025400013 0.001656268 -0.013252952
-0.025400013 0.0045013041 -0.013534112
0.0254 0.0047421064 -0.013721066
-0.024843954 0.0077894107 -0.013277927
0.025400011 0.0075167092 -0.013455554
-0.025400007 0.010245532 -0.013590505
0.025400011 0.010696443 -0.013694432
-0.025400007 0.013544183 -0.013626061
0.024668038 0.013500661 -0.013325928
-0.023904592 0.015336936 -0.013850813
0.025400011 0.016531473 -0.013546147
-0.025400016 0.019593315 -0.013674453
0.024747485 0.018851768 -0.013604728
-0.025400007 0.022444168 -0.013471354
0.025400016 0.022395974 -0.013284309
-0.024279878 0.024802381 -0.013402113
-0.022490606 0.025400007 -0.013483296
-0.019482944 0.025400007 -0.013567933
-0.016560549 0.025400011 -0.013624453
-0.012859746 0.025392506 -0.013756673
-0.010544749 0.025400011 -0.01356098
-0.0076923585 0.025400009 -0.013475148
-0.0045941626 0.025400015 -0.01347666
-0.0014781312 0.024553344 -0.013642001
0.001177031 0.02450878 -0.013644192
0.0046022139 0.025400003 -0.013636362
0.007362809 0.025400011 -0.013430747
0.010314276 0.025400002 -0.013685822
0.013373531 0.025400003 -0.013349778
0.016388798 0.025400016 -0.013494417
0.01940202 0.025400013 -0.01343775
0.022563241 0.025400011 -0.013503158
0.025022207 0.025016321 -0.013456994
-0.025202464 -0.024868144 -0.010555113
-0.022534572 -0.025400009 -0.01035733
-0.019586958 -0.025400015 -0.010667836
-0.01632194 -0.025400011 -0.010666778
-0.013669899 -0.025400009 -0.010391288
-0.010408297 -0.025400016 -0.010459773
-0.0075332015 -0.025400009 -0.010294123
-0.0044003036 -0.025400011 -0.010434766
-0.0012905197 -0.024405805 -0.010912454
0.0012527077 -0.025400011 -0.010589838
0.0041777301 -0.024781987 -0.010787448
0.0073913792 -0.025399998 -0.010608808
0.010527251 -0.025400015 -0.010543791
0.013441762 -0.025400011 -0.010814324
0.01607395 -0.024901126 -0.010708159
0.019581286 -0.025400007 -0.010483826
0.022016043 -0.024691401 -0.010757209
0.025064502 -0.02502447 -0.010623618
-0.025400007 -0.022603951 -0.010313991
0.025178706 -0.021695383 -0.010708632
-0.025400005 -0.019528074 -0.0104993
0.024528354 -0.019597417 -0.010677434
-0.024765946 -0.016610591 -0.010603411
0.025400013 -0.016337195 -0.010538967
-0.025399998 -0.013566835 -0.010410567
0.025400013 -0.013525524 -0.010516082
-0.025400003 -0.010543781 -0.010367198
0.025400009 -0.010532379 -0.010403839
-0.025400009 -0.0078750327 -0.01071466
0.025400007 -0.0076044998 -0.010369916
-0.025400003 -0.0044738436 -0.010255373
0.025400015 -0.004608673 -0.010455581
-0.025223656 -0.0017027311 -0.011153165
0.025400013 -0.00144692 -0.01044471
-0.025400013 0.0016062395 -0.010476472
0.02511872 0.0020238038 -0.010734171
-0.025400007 0.0044817822 -0.010410056
0.025400007 0.0045581865 -0.010382465
-0.025400015 0.0072994451 -0.010399465
0.025400013 0.0073880977 -0.010632907
-0.025400013 0.010622805 -0.010474078
0.024850767 0.010463608 -0.010751786
-0.025400009 0.013437598 -0.01034389
0.025400009 0.013687767 -0.01060917
-0.025400015 0.016626976 -0.010577576
0.025400005 0.016534565 -0.010332931
-0.025400013 0.019391801 -0.010594477
0.025400007 0.019354332 -0.010343326
-0.025400015 0.022532186 -0.010517485
0.025258256 0.021884218 -0.010660542
-0.025017109 0.025014037 -0.010388726
-0.022468884 0.025400007 -0.010489457
-0.019417059 0.025400002 -0.010297021
-0.015796809 0.024608448 -0.010721836
-0.012957608 0.025400005 -0.01043138
-0.01058678 0.025400007 -0.010470659
-0.0073614782 0.025400013 -0.010280081
-0.0044605145 0.025400007 -0.010712493
-0.0022824807 0.023315787 -0.010851001
0.0006965613 0.0248155 -0.010777633
0.0046229996 0.024606261 -0.010617511
0.0073415842 0.024391748 -0.010739178
0.010645005 0.025400009 -0.010337429
0.013633167 0.025400005 -0.010271127
0.016607419 0.025400007 -0.010411357
0.018840017 0.025265895 -0.01055653
0.021887081 0.025393771 -0.010757184
0.025123741 0.024613993 -0.010601613
-0.025092788 -0.025000721 -0.0073002619
-0.022644283 -0.024801977 -0.0076733991
-0.019264655 -0.025400007 -0.0075899134
-0.016530355 -0.025400009 -0.0073761055
-0.013639032 -0.025400013 -0.0075346995
-0.010602322 -0.025400009 -0.0073865708
-0.0072757681 -0.025400009 -0.0074878419
-0.0042455504 -0.025400015 -0.0075111487
-0.0014424538 -0.025400009 -0.0077013546
0.001225478 -0.024641803 -0.007618574
0.0044957711 -0.025400009 -0.0074659479
0.0077810576 -0.024700057 -0.0076868385
0.009901396 -0.024804428 -0.0077654491
0.012696815 -0.025268111 -0.0076731886
0.01644858 -0.02427111 -0.0077087767
0.019482708 -0.025400015 -0.0076734601
0.022470478 -0.025399998 -0.0075524477
0.023968002 -0.024112023 -0.0075516663
-0.025400015 -0.022565672 -0.0075232997
0.025400016 -0.022549722 -0.0073644351
-0.025400013 -0.019545842 -0.0075525185
0.024857564 -0.019237878 -0.0077733477
-0.025180072 -0.015689535 -0.0078409258
0.025400007 -0.016681161 -0.0072548883
-0.025400011 -0.013526071 -0.0075704576
0.025400007 -0.013450168 -0.0074903234
-0.024836309 -0.010892005 -0.0078722453
0.024624655 -0.010443558 -0.0077507533
-0.025400016 -0.0075990511 -0.0075919204
0.025400005 -0.0074011656 -0.0074800863
-0.025400007 -0.0043818825 -0.0073366142
0.02480196 -0.00486022 -0.0078686047
-0.024524147 -0.0011839112 -0.0077735144
0.025400015 -0.0013138868 -0.0075652949
-0.024651995 0.0011804278 -0.0075544091
0.025130672 0.0017829778 -0.0078938082
-0.025400009 0.0046339319 -0.0074023721
0.025400003 0.0044408673 -0.0074894554
-0.025400009 0.0075539639 -0.0076294937
0.025400009 0.0070182253 -0.0079873912
-0.025400009 0.010402605 -0.0075427517
0.0254 0.010634336 -0.0075046099
-0.025400013 0.013397444 -0.0072888122
0.025400007 0.013349344 -0.0076386826
-0.024948649 0.016664369 -0.0076355566
0.024090262 0.016225589 -0.0080978768
-0.025400003 0.019395549 -0.007585031
0.025400003 0.019616274 -0.0076247226
-0.025400003 0.021745933 -0.007626011
0.024492865 0.02269154 -0.0076746987
-0.024981733 0.025159545 -0.0075946399
-0.022423677 0.025400003 -0.0075909854
-0.01981594 0.025400005 -0.0074616778
-0.016770728 0.025259215 -0.0078531718
-0.013709328 0.025121814 -0.0074436101
-0.010480721 0.025400013 -0.0071781124
-0.0075022816 0.025399998 -0.0073118336
-0.0044493964 0.025400015 -0.0074384878
-0.0016504013 0.024997478 -0.0079344437
0.0017739796 0.025400011 -0.0075796498
0.0043719034 0.025400015 -0.0075804205
0.0078186309 0.025400015 -0.007612546
0.0099801468 0.024441514 -0.0074109873
0.013660558 0.025400002 -0.0076574772
0.016395474 0.025400007 -0.0073283166
0.019143447 0.025400015 -0.007652665
0.022365091 0.025350137 -0.0077764937
0.025013 0.025100552 -0.0074785887
-0.025107376 -0.025027638 -0.0043343389
-0.021873228 -0.024740251 -0.0046660895
-0.019261762 -0.024456449 -0.0047020433
-0.016660221 -0.025400003 -0.0046028821
-0.013482369 -0.025400007 -0.0043611452
-0.010356858 -0.025400009 -0.0045607155
-0.0074811955 -0.025400002 -0.0043506743
-0.004530753 -0.025400011 -0.0043768482
-0.0013477185 -0.025400009 -0.0045918715
0.0015744973 -0.025400011 -0.004670273
0.0040124608 -0.025229657 -0.004824067
0.007372967 -0.025400007 -0.004410564
0.010484604 -0.025400011 -0.0042762184
0.013472684 -0.025400013 -0.0044305376
0.016421832 -0.025400011 -0.0044342894
0.019327585 -0.025400011 -0.0045574494
0.021815263 -0.024763716 -0.0047684684
0.024920719 -0.025151482 -0.0044138045
-0.025400013 -0.022609619 -0.00455778
0.025069822 -0.021564489 -0.0049951575
-0.025400007 -0.019447695 -0.004664477
0.025400005 -0.019293414 -0.0044769081
-0.025400013 -0.016646748 -0.0045250142
0.024925767 -0.016408905 -0.0047787442
-0.025400011 -0.013350417 -0.0046182382
0.025400003 -0.013544473 -0.0046413019
-0.023738829 -0.010047778 -0.0050204396
0.025400015 -0.010638271 -0.0044981563
-0.025400013 -0.0074663092 -0.0044413782
0.025400009 -0.0075855809 -0.0047154636
-0.025400007 -0.0044005523 -0.0044872006
0.025400015 -0.0043096547 -0.0046261442
-0.024568165 -0.0020855085 -0.0052992348
0.025400005 -0.001629289 -0.0043775593
-0.025400015 0.0015488291 -0.0046600676
0.02484764 0.0014724773 -0.0049302583
-0.025400015 0.0044641574 -0.0044689076
0.025232177 0.0043352833 -0.0045942287
-0.025400007 0.0072377301 -0.0044951956
0.025400003 0.0076695145 -0.0046749697
-0.024955681 0.0096844137 -0.005292668
0.025400009 0.010629071 -0.0046389257
-0.025400007 0.013684741 -0.0045445198
0.023807624 0.01275875 -0.0052208435
-0.025251878 0.015534886 -0.0045122728
0.025400011 0.016376074 -0.0043126871
-0.025399994 0.019569676 -0.0048144665
0.025400015 0.019362895 -0.0047674989
-0.025284929 0.022000311 -0.0047960714
0.025400015 0.022523286 -0.0043923063
-0.025067095 0.025069455 -0.0045484933
-0.022426594 0.025400011 -0.0045064753
-0.019416744 0.025400009 -0.0042108875
-0.015247521 0.02493158 -0.0048791664
-0.013344 0.025400009 -0.0046951803
-0.010499285 0.025400015 -0.0046287803
-0.0075568608 0.025400007 -0.004505326
-0.0046725585 0.025400015 -0.0046465192
-0.0014652681 0.025400005 -0.0046795611
0.0018774462 0.024442863 -0.0047435318
0.0044783559 0.025400007 -0.0045694276
0.0075629102 0.024312643 -0.005111733
0.010841661 0.024449391 -0.0047343941
0.013606329 0.025400011 -0.004424368
0.016462214 0.025400011 -0.0044495668
0.019300697 0.025400016 -0.0045634597
0.022576544 0.025400003 -0.004445456
0.025003845 0.025091106 -0.0045397063
-0.025062136 -0.025028471 -0.0015071552
-0.02228209 -0.025400009 -0.001797727
-0.018723154 -0.024497898 -0.0019807012
-0.016498344 -0.025400013 -0.0014713708
-0.013625739 -0.025400002 -0.0014625532
-0.010452406 -0.025399998 -0.0016340188
-0.0077196318 -0.024347918 -0.0018525327
-0.004429413 -0.024853149 -0.0018398199
-0.00090345152 -0.024466408 -0.0018612553
0.0013273566 -0.025400009 -0.0016164031
0.0043347408 -0.024731593 -0.0015024618
0.007578874 -0.025400007 -0.0015990239
0.010657431 -0.025400011 -0.0014926207
0.013934774 -0.025296981 -0.0019596745
0.016343428 -0.025400015 -0.0015235478
0.019498151 -0.025400015 -0.0015182752
0.022406157 -0.025400013 -0.001555834
0.024935972 -0.024982741 -0.0012972065
-0.025400009 -0.022534464 -0.0012902751
0.025230184 -0.022184618 -0.0019864112
-0.025393432 -0.018976618 -0.001934453
0.024492865 -0.018962404 -0.0016495504
-0.024768205 -0.016074236 -0.0019404369
0.025400009 -0.016498849 -0.0013925838
-0.025228474 -0.012721124 -0.0018044808
0.025011742 -0.013766697 -0.0015451936
-0.025400007 -0.010444378 -0.001461727
0.025400007 -0.010585911 -0.0014522242
-0.025310699 -0.0075127422 -0.0018483438
0.025400011 -0.0075090448 -0.0015418604
-0.025400011 -0.0047159153 -0.0013883829
0.025400011 -0.0040862691 -0.0018546333
-0.024250744 -0.0019044692 -0.0022851718
0.025400013 -0.0014664144 -0.0015941771
-0.025400005 0.0014109168 -0.0015881631
0.025030913 0.0014675488 -0.0017954181
-0.024544558 0.0047549484 -0.0025832695
0.025400007 0.0046625105 -0.0014918533
-0.025400011 0.0075715752 -0.0013205237
0.024570063 0.0077963267 -0.001586166
-0.024124343 0.01042229 -0.0017112836
0.025400009 0.010465987 -0.0015422566
-0.025400007 0.013504539 -0.0017361908
0.025400015 0.013230106 -0.0017979003
-0.024878114 0.016180661 -0.0020390954
0.024016317 0.016056856 -0.0025286768
-0.025400009 0.019374495 -0.001391442
0.024520187 0.018917294 -0.0022103989
-0.025400009 0.022534646 -0.0014992608
0.025400007 0.022436434 -0.0014091994
-0.025102498 0.025002157 -0.0015734787
-0.022584539 0.025400009 -0.001489758
-0.019155331 0.024812251 -0.0018589951
-0.016528537 0.025400009 -0.00167656
-0.013424395 0.025400013 -0.0016744031
-0.010466766 0.025400013 -0.0014744934
-0.0069939778 0.025400015 -0.0017374295
-0.0045251078 0.025400015 -0.001686718
-0.0018987317 0.025091877 -0.0014008413
0.00093040004 0.024790568 -0.001890069
0.0049811774 0.024251582 -0.0018966855
0.0073184003 0.025400007 -0.0016737465
0.010528318 0.025400007 -0.001634137
0.013396266 0.025400009 -0.0015281504
0.016404478 0.025400009 -0.0015592894
0.019686654 0.025273014 -0.0019277694
0.022096831 0.025159774 -0.0021103811
0.025037091 0.025144458 -0.0014536208
-0.024994573 -0.025047641 0.001626931
-0.022508016 -0.025400013 0.0016380454
-0.01958479 -0.025125613 0.0012640881
-0.016520597 -0.025112431 0.00082420564
-0.012955463 -0.025308872 0.001673524
-0.01001338 -0.024509059 0.0010297232
-0.0072556194 -0.025393173 0.0012694795
-0.0044361772 -0.025400009 0.001441979
-0.0014283179 -0.025400013 0.001734971
0.0016122344 -0.025400015 0.0012752068
0.0049497914 -0.025053333 0.0010329897
0.0073791235 -0.025400005 0.00142416
0.010735007 -0.024423081 0.00099629851
0.013534667 -0.025400005 0.0014167196
0.015761621 -0.025400009 0.0014657784
0.019046944 -0.025399998 0.0009021209
0.022492023 -0.025400009 0.0014656724
0.025034698 -0.025064709 0.0016737102
-0.025399998 -0.022484034 0.0014145686
0.025181876 -0.022734307 0.0012552375
-0.025400009 -0.019496793 0.0013731644
0.025400005 -0.019539699 0.0015043163
-0.025400007 -0.016534485 0.001538339
0.025400013 -0.016439097 0.0016285203
-0.024561331 -0.013802901 0.0014335278
0.024833778 -0.01389564 0.0011492546
-0.025400015 -0.010498545 0.0014964493
0.02520979 -0.0098251766 0.0016116123
-0.025400015 -0.0074825576 0.0015255064
0.025400009 -0.0076456959 0.0014217563
-0.025400016 -0.0045766914 0.0016634088
0.025179464 -0.0039165872 0.00095807918
-0.025400002 -0.0014780025 0.0014512934
0.024706839 -0.0024919971 0.00066742563
-0.025400005 0.0015440987 0.0016024051
0.025400007 0.0017714833 0.0014837048
-0.025400007 0.004613772 0.0013694984
0.024443952 0.0042981068 0.00051767228
-0.024857966 0.0069126585 0.00091056788
0.025400013 0.0073134257 0.0015294665
-0.025400011 0.010325613 0.001437175
0.025400011 0.010637056 0.0014641124
-0.025400016 0.013559323 0.0016071352
0.025400011 0.013728492 0.001296582
-0.025400009 0.016643286 0.0014915462
0.025400013 0.016619712 0.0015377786
-0.025400007 0.019438649 0.001677209
0.024572687 0.019566936 0.0010179682
-0.025400003 0.022359915 0.0014681842
0.025400009 0.022514766 0.0013275759
-0.022544695 0.022737384 0.00036808709
-0.022151632 0.024868773 0.00085682148
-0.019681618 0.025400002 0.0016038624
-0.016357636 0.025400009 0.0013597135
-0.012929095 0.025000717 0.00091959373
-0.010465701 0.025400011 0.0014963214
-0.0077521876 0.025126217 0.0011405945
-0.0042028511 0.024450926 0.00090233167
-0.0014372149 0.025400013 0.0015302985
0.0016697536 0.025400007 0.0016950904
0.0045016571 0.025400009 0.001373021
0.0074409815 0.025400013 0.0014508998
0.010308651 0.025400018 0.0013365583
0.013448355 0.025399998 0.0015112695
0.015500261 0.024093535 0.0010127275
0.019614382 0.025400002 0.0012828803
0.022457723 0.025400013 0.0015903792
0.025061429 0.025076255 0.001253585
-0.025070898 -0.024951648 0.0044867457
-0.022393696 -0.025400015 0.0044999626
-0.018894961 -0.024639361 0.0037779033
-0.016435344 -0.025400013 0.004514622
-0.013483063 -0.025400009 0.0046269675
-0.010217848 -0.024459574 0.0043883789
-0.0075666551 -0.025400015 0.0044552549
-0.0044941418 -0.025400015 0.0045350716
-0.0016345058 -0.025400007 0.0043740971
0.0010956796 -0.024969585 0.0044832835
0.0045966669 -0.025400013 0.0044628805
0.0073923995 -0.025400013 0.0045266435
0.010646812 -0.025400013 0.0045575551
0.013587507 -0.025400003 0.004350116
0.016533591 -0.025400009 0.004506804
0.019445391 -0.024714563 0.0044656801
0.022286309 -0.025400007 0.0047199973
0.025011009 -0.025090272 0.004401071
-0.025400007 -0.022545911 0.0044287452
0.025400011 -0.022824362 0.0046323533
-0.025400009 -0.019712305 0.0044799596
0.024809139 -0.019248247 0.0040278332
-0.025400009 -0.016557099 0.0043353802
0.025400009 -0.016355697 0.0044465894
-0.025400011 -0.013431468 0.004376017
0.02478434 -0.012601424 0.0034308629
-0.025400005 -0.010619556 0.0044524805
0.025400007 -0.01065769 0.0045325104
-0.025400005 -0.0073378985 0.0044921008
0.025400003 -0.0074183615 0.0045863739
-0.025400015 -0.004550531 0.0044314773
0.025400005 -0.0045675589 0.0043570935
-0.02436211 -0.0018973901 0.0036922495
0.025400015 -0.0015842698 0.0045151063
-0.025046311 0.0010134899 0.0039956542
0.025399996 0.001435313 0.0046075727
-0.025400011 0.0043721907 0.0043737316
0.025400015 0.0043797535 0.0044599511
-0.024609758 0.0062946067 0.0037310319
0.02539525 0.0068006762 0.0039468035
-0.024667375 0.010163667 0.0041659581
0.025400007 0.010515188 0.0040641576
-0.024495861 0.013454456 0.0043153763
0.024738701 0.013659239 0.0041164919
-0.025077347 0.01659066 0.0038970674
0.025400009 0.016614126 0.0043875463
-0.025379831 0.01930966 0.0043118619
0.025193704 0.018288232 0.0034625288
-0.025400007 0.02249318 0.0046057487
0.025400015 0.022426123 0.0045964797
-0.025018938 0.025032131 0.0045217918
-0.02238518 0.025400013 0.0044836449
-0.01885746 0.024827553 0.0038734269
-0.016539706 0.025400002 0.0047674472
-0.013612923 0.025400003 0.0044007883
-0.010532839 0.024780795 0.0038769587
-0.0072899275 0.025400009 0.0045475978
-0.0046081017 0.025400005 0.0044797226
-0.0012405586 0.024316018 0.0038959186
0.0015517182 0.025400018 0.0044518542
0.0041199266 0.025389982 0.0042817513
0.0075636795 0.025400009 0.0046932548
0.010172801 0.024652954 0.0047023217
0.013407546 0.025400011 0.0045217373
0.016307967 0.025400007 0.0044899038
0.019705176 0.025400003 0.0045050778
0.022523625 0.024418643 0.0036910377
0.02502468 0.025037605 0.0046635061
-0.023715556 -0.025055405 0.0069051119
-0.022620333 -0.025400005 0.0075572417
-0.018587997 -0.024489628 0.0067620585
-0.016491039 -0.025400011 0.0075636487
-0.012600924 -0.024879625 0.007194988
-0.0099167805 -0.025284518 0.0067719184
-0.0067606745 -0.024461687 0.0069975909
-0.0049500619 -0.024729241 0.0073653627
-0.0012044844 -0.0254 0.0074584195
0.0017747288 -0.025400016 0.0074432013
0.0039372612 -0.02456722 0.0070655965
0.0074530784 -0.025400002 0.0070814169
0.010559025 -0.025400007 0.0075828913
0.014006067 -0.024777783 0.0069086836
0.016503666 -0.025400013 0.0075164279
0.019639617 -0.025400009 0.0074745798
0.02166732 -0.025339093 0.0067689614
0.025120795 -0.024977764 0.007327917
-0.025090132 -0.021021891 0.0065028416
0.025400007 -0.022616919 0.0075040082
-0.023692178 -0.019657016 0.0066875303
0.02414654 -0.019009409 0.0067181122
-0.024646258 -0.015850469 0.0071213157
0.025395224 -0.016581368 0.0071354592
-0.025400005 -0.013490168 0.0074612508
0.025400007 -0.013717148 0.0074549397
-0.023677973 -0.010248099 0.0067371968
0.024781374 -0.0098217512 0.0074502737
-0.025400009 -0.0074553499 0.0075273369
0.024652719 -0.0069382852 0.0067870812
-0.024618473 -0.0046433927 0.0071427245
0.024705624 -0.0049272315 0.0076381713
-0.025335882 -0.0017450218 0.0072158179
0.024628287 -0.0018246182 0.0074070599
-0.022553435 0.0011630703 0.0064573409
0.024524147 0.0018788711 0.0070422883
-0.025400015 0.0043446813 0.0074173696
0.025208635 0.0041008992 0.0072567966
-0.025400015 0.0074987686 0.0075693354
0.025400007 0.007600484 0.0074044615
-0.024166996 0.008457005 0.0054421411
0.025400009 0.010562871 0.007427936
-0.025388394 0.013510947 0.0075569749
0.025400007 0.012516015 0.0070547704
-0.025400009 0.016254911 0.0075027719
0.025400015 0.016518435 0.0076187276
-0.025400007 0.019485394 0.0075986041
0.025400007 0.019383717 0.0073788525
-0.025400002 0.022636088 0.0075255129
0.025400009 0.022607084 0.0074907625
-0.025104705 0.025031283 0.0076677869
-0.02239283 0.025394324 0.0072154012
-0.019344354 0.025392357 0.0073308488
-0.016512802 0.025400013 0.0076107378
-0.013301841 0.025126774 0.0069948826
-0.0097978786 0.024908109 0.0065355869
-0.0068730628 0.02511411 0.0075099072
-0.0041508549 0.024921689 0.0072704633
-0.0020582417 0.024241215 0.0065371781
0.0015100106 0.025400011 0.0075650355
0.004425202 0.025400013 0.0074718096
0.0074583418 0.025400007 0.0075923014
0.010455959 0.025400007 0.0076668281
0.013478794 0.025400003 0.0074487906
0.016601574 0.025400005 0.0072517255
0.019547895 0.025400002 0.0075177732
0.022507219 0.025400015 0.0072721881
0.025157662 0.025009647 0.0074878028
-0.024484947 -0.024233812 0.010025207
-0.021481156 -0.024419339 0.010023268
-0.019326929 -0.025400005 0.010545725
-0.016500998 -0.025400015 0.010596537
-0.012919784 -0.02325286 0.0083389385
-0.010621923 -0.025400013 0.010474553
-0.0072459248 -0.025400005 0.010520173
-0.0042575593 -0.024960887 0.0099062696
-0.0014688785 -0.025400009 0.010617355
0.0010197577 -0.024924966 0.010014355
0.0044441624 -0.024630114 0.010113248
0.0071365857 -0.025399886 0.010276226
0.010412404 -0.024548464 0.010006086
0.013442126 -0.025399998 0.010548049
0.016527342 -0.025400009 0.01044826
0.019513946 -0.025400003 0.010418414
0.022545803 -0.025400005 0.010426317
0.024567991 -0.024313388 0.0096374406
-0.025400013 -0.022450933 0.010494323
0.025400009 -0.022515541 0.010789691
-0.025111703 -0.019637881 0.010059148
0.025206458 -0.01939244 0.0099305948
-0.025400003 -0.016468741 0.010518301
0.025400016 -0.016739706 0.010378305
-0.025400009 -0.013659528 0.010501567
0.025400011 -0.013485834 0.010422098
-0.024242282 -0.010813269 0.010003295
0.025385911 -0.010604192 0.010064141
-0.024990804 -0.0076327887 0.0096884351
0.025162706 -0.007709906 0.0099453926
-0.024827246 -0.0041776812 0.0098440554
0.02499494 -0.0049269069 0.010214776
-0.025400007 -0.0015463028 0.010732925
0.025400013 -0.0016374686 0.010520989
-0.025400009 0.001447754 0.010596345
0.024429409 0.00079668988 0.010388847
-0.025381329 0.004057541 0.010576432
0.025400007 0.0048292498 0.010685364
-0.025400002 0.0076010777 0.010263503
0.024930125 0.0076811085 0.010146763
-0.025400009 0.010850451 0.010341417
0.023720557 0.010081002 0.0096069127
-0.024406649 0.013819566 0.010305817
0.025400005 0.013340498 0.010440565
-0.025395 0.015602837 0.010029219
0.024868669 0.01631123 0.0098493146
-0.025400011 0.019668579 0.010575338
0.025400011 0.019803528 0.010672958
-0.024587261 0.022177422 0.0099222185
0.025195086 0.022554673 0.010149991
-0.025040528 0.02500025 0.010403153
-0.02162331 0.024560824 0.010335954
-0.018869307 0.025391532 0.010060746
-0.015823122 0.025400003 0.0099983159
-0.013165385 0.025400013 0.010469634
-0.010398793 0.025400009 0.010474121
-0.0076677324 0.025400007 0.010630568
-0.003928205 0.02539449 0.010244494
-0.0015345503 0.025400009 0.010705234
0.0015784 0.025400002 0.010216135
0.0046591838 0.025400009 0.010412963
0.0074682739 0.025400013 0.010497498
0.010478277 0.025400016 0.010632591
0.013404507 0.025400002 0.010351042
0.016551722 0.025178481 0.010427427
0.019784058 0.024741301 0.01044981
0.022459021 0.02446983 0.010636653
0.025069837 0.025044965 0.010564249
-0.023304688 -0.024494845 0.011978592
-0.02253644 -0.025400007 0.013473965
-0.019379752 -0.025400009 0.01350046
-0.015954182 -0.023746485 0.01259574
-0.013851858 -0.024127046 0.012418919
-0.010289444 -0.024921194 0.012874307
-0.0060363137 -0.023782739 0.012405253
-0.00361711 -0.024635827 0.012494427
-0.0017929336 -0.025166906 0.01313441
0.0018706782 -0.024525616 0.012785188
0.0045388788 -0.025400015 0.01351743
0.0075471746 -0.025400003 0.013579503
0.01049523 -0.025400005 0.013788029
0.01345141 -0.025400007 0.013445448
0.016549582 -0.025400007 0.013566278
0.019352239 -0.025400009 0.013590643
0.021758648 -0.024611717 0.012959348
0.025145631 -0.024956629 0.013502438
-0.025400011 -0.022539522 0.013544948
0.024694646 -0.022205317 0.012981011
-0.025400002 -0.019358626 0.01368502
0.024825577 -0.019007063 0.013048164
-0.025194371 -0.01561489 0.013009464
0.025400007 -0.01655532 0.013380923
-0.025400002 -0.013638821 0.013459715
0.025400009 -0.013495465 0.013510956
-0.025400003 -0.010311252 0.013618204
0.025400002 -0.010651227 0.013870042
-0.024384703 -0.0069394661 0.012759932
0.025400013 -0.0077255112 0.013001986
-0.025400009 -0.004348746 0.0135894
0.025400009 -0.0044964659 0.013671429
-0.025400007 -0.0013739835 0.013497171
0.025394058 -0.0013454698 0.013165266
-0.025400009 0.001533078 0.013378379
0.025400005 0.0016040107 0.013540803
-0.025400007 0.0042870566 0.013318745
0.025399994 0.0044001844 0.013380578
-0.024539709 0.008142069 0.011994783
0.025400015 0.0073127355 0.013445331
-0.025390152 0.010579084 0.013146541
0.024882516 0.0099397916 0.013238024
-0.025400003 0.01339796 0.013621686
0.025231408 0.013029797 0.013308861
-0.024711074 0.016094321 0.013026458
0.024746673 0.016237987 0.013008661
-0.025400015 0.019428922 0.013558056
0.025197491 0.018841911 0.013457728
-0.025393931 0.022687843 0.012907634
0.024143463 0.022115357 0.012671445
-0.025070637 0.025056237 0.013524574
-0.022327635 0.025284925 0.012690847
-0.018978227 0.025343629 0.012747985
-0.016198264 0.0254 0.013530551
-0.013526664 0.025400007 0.013473259
-0.010422498 0.025400003 0.013459893
-0.0070959223 0.024555545 0.013331547
-0.0043681934 0.025400018 0.013584602
-0.0015333964 0.025400013 0.013453508
0.0013779827 0.025400003 0.013655557
0.0044270903 0.025400013 0.013599316
0.0071343775 0.024403926 0.013280402
0.010402544 0.024620827 0.012926491
0.01384879 0.025134807 0.012925186
0.016599992 0.025400007 0.01336061
0.019387454 0.025400009 0.013465034
0.022719132 0.025165725 0.013123583
0.025068125 0.025141511 0.013488651
-0.025044821 -0.025059441 0.01671988
-0.0213155 -0.025063662 0.015258529
-0.018955993 -0.025275892 0.015860796
-0.016566895 -0.0254 0.016635332
-0.012907806 -0.024688292 0.015855363
-0.010207498 -0.025400003 0.016131679
-0.007515287 -0.025400011 0.016272612
-0.0044084233 -0.025400009 0.016310876
-0.001358412 -0.025400009 0.016504642
0.0014706791 -0.025400013 0.016555088
0.0044914759 -0.024819573 0.015401391
0.0074156085 -0.025400009 0.016790181
0.010389607 -0.025400007 0.016528748
0.013380332 -0.024459263 0.015842859
0.016632643 -0.025400002 0.016767778
0.019249814 -0.024502238 0.015695369
0.022044422 -0.024492865 0.015946705
0.025105672 -0.024985267 0.016595744
-0.025276449 -0.021564661 0.01536539
0.024934592 -0.021980831 0.016114673
-0.025400007 -0.019333605 0.016272232
0.025400015 -0.019421635 0.016515318
-0.025284968 -0.016643731 0.015663406
0.025344724 -0.015980538 0.01548702
-0.025400009 -0.013398838 0.016558977
0.024519945 -0.012805286 0.015983248
-0.024059322 -0.010151822 0.016040022
0.025400013 -0.010619791 0.016302703
-0.024622232 -0.0079300283 0.016453004
0.025400002 -0.007572738 0.016716488
-0.025400002 -0.0044835424 0.016635105
0.025400007 -0.0047121206 0.01650339
-0.025074126 -0.00099270069 0.015821606
0.025400002 -0.0013204508 0.016419988
-0.025190489 0.0011851438 0.015874714
0.024781393 0.0020144666 0.01563235
-0.025033141 0.0040054256 0.015822399
0.0254 0.0044838726 0.01637077
-0.024831308 0.0068774838 0.015829561
0.025400009 0.0074116406 0.01644898
-0.024574162 0.010522027 0.015861504
0.0254 0.010419913 0.016684735
-0.025400013 0.013328119 0.015854571
0.024963673 0.013215277 0.015885238
-0.024601029 0.015868204 0.016155621
0.025230804 0.016851088 0.016297191
-0.025400009 0.019585423 0.01659075
0.025262823 0.018475858 0.015520944
-0.0251552 0.022161121 0.015584995
0.025400009 0.022532482 0.016673787
-0.025184747 0.025051057 0.016462291
-0.022554152 0.025400013 0.016720286
-0.019338112 0.025400013 0.016448956
-0.016462103 0.025400009 0.016385693
-0.013506587 0.025400002 0.016562251
-0.010081836 0.024784759 0.015570329
-0.0075400635 0.025400007 0.016329005
-0.0045090355 0.025400015 0.016528936
-0.0016091032 0.025400009 0.016404277
0.0013685122 0.025400005 0.016561627
0.0046569793 0.024925467 0.016434999
0.0070995656 0.024154155 0.014723861
0.010369345 0.025400002 0.016380161
0.013293789 0.024363264 0.01526053
0.015293556 0.023991099 0.014058705
0.018625578 0.024492865 0.016051186
0.022319447 0.025400003 0.015933175
0.025061371 0.02433404 0.016423205
-0.024621593 -0.025146162 0.019407881
-0.022326238 -0.025395522 0.019270904
-0.01942265 -0.024652954 0.01924788
-0.016264016 -0.02537705 0.019465737
-0.013410929 -0.025400007 0.019590719
-0.010512982 -0.025400002 0.019528607
-0.0074152425 -0.025400003 0.019562753
-0.0050490391 -0.024934385 0.019010868
-0.0016756891 -0.025400009 0.019369135
0.0017837329 -0.024403926 0.019602114
0.00458779 -0.025400011 0.019458041
0.0070805531 -0.025387717 0.018908955
0.010737233 -0.025400007 0.019463211
0.012893383 -0.025002645 0.019497856
0.016372703 -0.025400003 0.01945002
0.01884529 -0.024396308 0.019516952
0.022397086 -0.025400002 0.019551868
0.025109138 -0.025009448 0.019478709
-0.025400013 -0.022366861 0.01943142
0.024875635 -0.021758538 0.018289462
-0.024751635 -0.018275902 0.018665677
0.025400015 -0.019167872 0.019034818
-0.025039168 -0.015895044 0.018672196
0.025158674 -0.01608339 0.018826
-0.025241788 -0.012896472 0.01920783
0.025152696 -0.01309994 0.018863345
-0.025400013 -0.01055855 0.01957182
0.024777606 -0.010009394 0.017855559
-0.025236312 -0.0068303258 0.018930558
0.025400013 -0.0074346918 0.019422174
-0.023660377 -0.0043746061 0.018044328
0.025163939 -0.0048326231 0.019054836
-0.02539999 -0.0016732895 0.0196482
0.024684452 -0.0018825483 0.018703718
-0.024515249 0.0010216053 0.019128732
0.02539744 0.0011679239 0.019271322
-0.024876602 0.0047324444 0.018963832
0.025400013 0.004490152 0.01953128
-0.025400009 0.0075987601 0.019604448
0.025400015 0.0074391956 0.019485919
-0.024735717 0.010173528 0.018741403
0.024850838 0.011059453 0.019136142
-0.025400007 0.01341543 0.01974421
0.024657182 0.013831326 0.019176176
-0.023828112 0.015877744 0.018617164
0.024505114 0.016693039 0.01915675
-0.025400015 0.019216457 0.019005261
0.025400013 0.019572766 0.01937514
-0.023973031 0.021916853 0.018811924
0.025400009 0.022583732 0.019632967
-0.024414731 0.024277424 0.018257817
-0.022488244 0.025400011 0.019607773
-0.019587969 0.025400011 0.019584505
-0.015574822 0.025074316 0.018576615
-0.013283793 0.024730861 0.018617176
-0.010592853 0.025400011 0.019524671
-0.0070238253 0.025274035 0.01875592
-0.0044581015 0.025400002 0.01960543
-0.0013643183 0.025400015 0.019608384
0.001643891 0.025399918 0.019410672
0.0048368149 0.024767632 0.019022256
0.0075297318 0.025400009 0.019623607
0.010498264 0.024729794 0.017925009
0.013623064 0.025400011 0.019407744
0.016718179 0.025400011 0.019510664
0.018673556 0.024295652 0.019043487
0.022495896 0.025279677 0.019073272
0.025048153 0.024969388 0.019683817
-0.025096003 -0.025040729 0.02244667
-0.022340562 -0.025400007 0.022519434
-0.019450689 -0.025400015 0.022424383
-0.016738104 -0.025188703 0.021892739
-0.011983162 -0.023836071 0.021486275
-0.010522095 -0.025400007 0.022594556
-0.0076532154 -0.025399996 0.02246285
-0.0047632055 -0.024538992 0.02200266
-0.0013256324 -0.025400007 0.022605456
0.001177639 -0.025395719 0.022217505
0.0045284643 -0.024668138 0.021740856
0.0074943043 -0.025400013 0.022498436
0.0098571796 -0.025393238 0.021518515
0.013281516 -0.025400011 0.022641616
0.015837139 -0.024647547 0.021701548
0.019415328 -0.025400013 0.022290839
0.022438223 -0.025400005 0.022315441
0.025078252 -0.025103083 0.022684131
-0.024657831 -0.02157189 0.021754567
0.024880709 -0.022152016 0.020918982
-0.025400011 -0.019489836 0.022312853
0.024696287 -0.019571038 0.022282936
-0.025400009 -0.01651673 0.022345085
0.025268003 -0.016165867 0.021205045
-0.024506383 -0.012469124 0.021967055
0.025394306 -0.013568688 0.022343628
-0.025400015 -0.010634057 0.022401735
0.024580656 -0.010643275 0.021703083
-0.025400009 -0.0074778283 0.022490639
0.025399998 -0.007502432 0.022384787
-0.025400013 -0.0044185547 0.022596741
0.024860257 -0.0042098043 0.021100409
-0.025400009 -0.0015179019 0.022432841
0.024536068 -0.0022931988 0.022115992
-0.023662897 0.001986136 0.022092063
0.025400007 0.0014268591 0.022565532
-0.025253961 0.0041785957 0.0222989
0.025400009 0.0046078963 0.022475554
-0.024875598 0.0069345795 0.022675211
0.025400003 0.0074811624 0.022412669
-0.025095688 0.0098472117 0.021571606
0.024964929 0.0097510377 0.022556229
-0.024451731 0.013089231 0.020886991
0.024618568 0.013660539 0.02226793
-0.025400007 0.016767234 0.022648653
0.024225432 0.016141139 0.021899132
-0.025399998 0.019623529 0.022576131
0.025399998 0.019349821 0.022395467
-0.024594106 0.021019228 0.021534819
0.024492865 0.021754751 0.020978553
-0.024979763 0.024991864 0.022602644
-0.021453023 0.024111105 0.021062925
-0.01971033 0.025400013 0.022449782
-0.016584883 0.025400007 0.022575861
-0.013555648 0.024901835 0.021483621
-0.010436758 0.025400015 0.022437647
-0.0078062108 0.025050765 0.021041498
-0.0045459941 0.025400009 0.02243164
-0.0018824574 0.024941666 0.022001084
0.0016397223 0.025400015 0.022249499
0.0047606896 0.025400013 0.022554088
0.0074468777 0.025400011 0.022408493
0.009893599 0.025400003 0.02175626
0.013125906 0.025261395 0.021388618
0.016443616 0.025400009 0.022326862
0.019516027 0.024560256 0.022597248
0.021377344 0.023384288 0.021236399
0.025074353 0.025025362 0.022244692
-0.024855498 -0.02494663 0.024956489
-0.02239277 -0.024945637 0.025072312
-0.018962793 -0.025026083 0.024721527
-0.014888944 -0.023893399 0.022674263
-0.013290521 -0.024071541 0.024306336
-0.010615886 -0.025143681 0.024923347
-0.0074240817 -0.025126791 0.024859199
-0.0044011376 -0.025079284 0.025055762
-0.00063886784 -0.024195956 0.023982216
0.00093466719 -0.024676751 0.024219792
0.0045970464 -0.025070481 0.024925591
0.0075488393 -0.024252888 0.024612682
0.010419696 -0.025063656 0.025096871
0.013450385 -0.025105238 0.025047807
0.01652569 -0.025106186 0.025022367
0.019489778 -0.025057325 0.025075799
0.02188779 -0.023814887 0.024846049
0.024931151 -0.024974281 0.025020083
-0.02512926 -0.022716491 0.024996683
-0.022503175 -0.02245013 0.025400013
-0.01852235 -0.021969829 0.025229119
-0.015990132 -0.021206155 0.024099341
-0.013548058 -0.022502143 0.025400015
-0.01043513 -0.022393975 0.025400015
-0.0075482521 -0.022686992 0.025400007
-0.0037325323 -0.022120129 0.024710132
-0.0014322394 -0.022380413 0.025400013
0.0010264143 -0.022284998 0.024902653
0.0049200682 -0.021365808 0.024310792
0.0072858287 -0.022487272 0.025400002
0.010284211 -0.02166706 0.024689568
0.013260681 -0.022608435 0.025073519
0.016505674 -0.022416776 0.025400009
0.019613607 -0.02253576 0.025400002
0.021232486 -0.021292862 0.024169257
0.023534905 -0.02170215 0.02265281
-0.025122143 -0.019715497 0.024945686
-0.0224752 -0.019493902 0.025400009
-0.018928822 -0.018586796 0.024535537
-0.015794015 -0.019565141 0.024938067
-0.01314992 -0.01974179 0.0253879
-0.0096072536 -0.019342583 0.023756374
-0.0077605103 -0.019569229 0.02526517
-0.0042533288 -0.019414814 0.025400002
-0.0018533656 -0.019479655 0.02454566
0.0012632551 -0.019318322 0.025235508
0.0041312762 -0.019429177 0.025400007
0.0073834816 -0.019664094 0.025400003
0.010590059 -0.019541319 0.025400005
0.012803005 -0.019112341 0.024364512
0.016323574 -0.019444164 0.024641803
0.019289682 -0.01890076 0.02460626
0.021909321 -0.018614341 0.024006493
0.024994697 -0.019589121 0.025092099
-0.024935186 -0.015967747 0.024299815
-0.021856477 -0.015124547 0.025238855
